ply
format ascii 1.0
element vertex 1151
property float x
property float y
property float z
property uchar red
property uchar green
property uchar blue
end_header
  1.47939 -0.149848   4.71313 255 255 255
 0.973648 -0.545223   5.33483 255 255 255
  1.39659 -0.193264   4.61741 255 255 255
  1.16769 -0.371815   4.77804 255 255 255
  1.34897 -0.273868   4.85299 255 255 255
-0.03253 -1.04037  5.13686 255 255 255
 0.999907 -0.510404   5.25529 255 255 255
  1.15099 -0.371353   4.89609 255 255 255
  1.12396 -0.393798   4.14726 255 255 255
 0.926564 -0.592953    5.3949 255 255 255
  1.07161 -0.459902   5.13519 255 255 255
  1.20852 -0.350089    4.9316 255 255 255
  1.32905 -0.269161   4.50148 255 255 255
 0.880134 -0.667178   4.08873 255 255 255
  1.12958 -0.435403    4.7018 255 255 255
 1.13199 -0.35822  5.03917 255 255 255
 0.786512 -0.770883    4.6442 255 255 255
 0.786163 -0.737465   4.72408 255 255 255
 0.846029 -0.752012   4.09924 255 255 255
  1.50474 -0.143852   4.65905 255 255 255
 0.489935 -0.781795   5.42105 255 255 255
0.873135 -0.71241  4.24575 255 255 255
  1.09552 -0.509316   5.15921 255 255 255
  1.16368 -0.354174   5.03403 255 255 255
  0.84094 -0.736225   4.08819 255 255 255
  1.16566 -0.404985   4.46925 255 255 255
   1.1073 -0.425248   5.19855 255 255 255
0.680863 -0.80786  5.03188 255 255 255
  1.08375 -0.436497   4.07823 255 255 255
 0.938496 -0.592632   4.68254 255 255 255
 0.814934 -0.724947   5.14198 255 255 255
 0.266002 -0.981756   5.04123 255 255 255
  1.03223 -0.484566    4.0442 255 255 255
  1.29288 -0.304469    4.9157 255 255 255
  1.44857 -0.171131   4.64424 255 255 255
 0.929821 -0.684327   3.93212 255 255 255
   1.0534 -0.364546   3.83304 255 255 255
 0.723271 -0.659693   5.36158 255 255 255
  1.26746 -0.290218    4.3162 255 255 255
   1.2731 -0.319159   4.46413 255 255 255
  1.25678 -0.322175   5.04702 255 255 255
 1.31334 -0.19771  4.48719 255 255 255
 1.47243 -0.18344  4.76205 255 255 255
  1.28877 -0.279629   4.70321 255 255 255
  1.00305 -0.413259   4.04557 255 255 255
 1.03668 -0.51182  4.64151 255 255 255
 0.927949 -0.654926    3.9272 255 255 255
 0.930054 -0.587882   3.83005 255 255 255
 0.519868 -0.864103   4.94385 255 255 255
 0.909817 -0.627876    4.3586 255 255 255
 0.879573 -0.604162   5.32762 255 255 255
 0.455334 -0.862666   5.10179 255 255 255
  1.02462 -0.476899   4.94257 255 255 255
 0.757624 -0.668467   5.29135 255 255 255
  0.91098 -0.645674   4.75922 255 255 255
  1.10656 -0.411178   5.12468 255 255 255
  1.43416 -0.181627   4.50995 255 255 255
 0.908632 -0.660065   4.86882 255 255 255
  1.31462 -0.236032    4.6147 255 255 255
0.285233  -1.0896   4.6903 255 255 255
 1.44479 -0.14557  4.68788 255 255 255
 0.780504 -0.800602   4.06185 255 255 255
 0.717145 -0.756454   5.12737 255 255 255
  1.36337 -0.143127   4.32391 255 255 255
  1.35285 -0.150146   4.32349 255 255 255
  1.15476 -0.372924   4.24254 255 255 255
 0.817628 -0.646755   5.29068 255 255 255
 0.897503 -0.639561   4.89569 255 255 255
 0.869778 -0.672123   4.70495 255 255 255
 0.679472 -0.670757   5.50093 255 255 255
 1.33494 -0.16142  4.28041 255 255 255
 0.964021 -0.556226   4.82673 255 255 255
  1.23097 -0.349287   4.92415 255 255 255
  1.22923 -0.313051   4.26397 255 255 255
  1.19945 -0.330544   4.24867 255 255 255
  1.10611 -0.378744   4.08236 255 255 255
0.899687 -0.67928  4.01308 255 255 255
  1.10955 -0.320147   3.95797 255 255 255
  1.01344 -0.510671   5.09686 255 255 255
  1.25111 -0.324773   4.82179 255 255 255
  1.18706 -0.348525   4.85344 255 255 255
 0.646945 -0.945328   4.38904 255 255 255
 0.670676 -0.954457   4.12896 255 255 255
0.410171 -1.23685  4.45805 255 255 255
0.230926 -1.09791  4.71676 255 255 255
 0.311403 -0.976419   5.07842 255 255 255
  1.36604 -0.163815   4.31478 255 255 255
  1.10302 -0.417386   4.91688 255 255 255
 0.952857 -0.579344   4.34984 255 255 255
  1.07847 -0.437849   4.95332 255 255 255
0.854994 -0.72236  4.30663 255 255 255
 0.743233 -0.794882   4.65322 255 255 255
  1.49068 -0.143917   4.66635 255 255 255
  1.27105 -0.308915   4.94051 255 255 255
  1.45309 -0.179186   4.67158 255 255 255
  1.24782 -0.361201   4.65378 255 255 255
 0.679473 -0.793643   4.04713 255 255 255
  1.44911 -0.179459   4.52537 255 255 255
  0.93765 -0.635114   4.14723 255 255 255
   1.1826 -0.356177    4.9788 255 255 255
  1.43046 -0.211956   4.74634 255 255 255
  1.20375 -0.380451    4.4982 255 255 255
 0.824195 -0.729414   4.21985 255 255 255
 0.880203 -0.555359   5.49831 255 255 255
 1.00281 -0.45752  4.00072 255 255 255
 0.980401 -0.551669   4.36555 255 255 255
  1.08574 -0.423491   5.14807 255 255 255
 0.914583 -0.613536   5.23249 255 255 255
  1.35879 -0.255965   4.93007 255 255 255
 0.346212 -0.927664   5.07875 255 255 255
 0.777652 -0.813047   3.99586 255 255 255
  1.13395 -0.404053   4.89799 255 255 255
  1.22478 -0.323523   4.94105 255 255 255
  1.45977 -0.176832   4.62972 255 255 255
 0.938814 -0.609913   4.28164 255 255 255
0.486342 -1.09529  4.04367 255 255 255
   1.4519 -0.126531   4.39927 255 255 255
 0.742297 -0.846866   4.13577 255 255 255
  1.34097 -0.289874   5.00727 255 255 255
  1.40701 -0.199582   4.55338 255 255 255
   0.6639 -0.752199   5.18232 255 255 255
 0.293587 -0.957231   4.97042 255 255 255
  1.30595 -0.283294   4.58578 255 255 255
  1.23282 -0.320103   5.05738 255 255 255
   1.2176 -0.338653   4.38792 255 255 255
 0.712059 -0.780633   5.04971 255 255 255
  1.0111 -0.51806  4.62985 255 255 255
 0.561869 -0.827767     5.061 255 255 255
 0.700201 -0.852594    4.7979 255 255 255
  1.19665 -0.343293   4.99155 255 255 255
  1.40046 -0.220098   4.53028 255 255 255
0.169467 -1.13106  4.82725 255 255 255
  1.18115 -0.343228   5.07497 255 255 255
 0.641137 -0.729529   5.27519 255 255 255
  1.08563 -0.418356   4.99177 255 255 255
  1.24537 -0.322898   5.06906 255 255 255
  1.19893 -0.399255   4.70365 255 255 255
  1.35029 -0.268255   4.65075 255 255 255
  1.12983 -0.424879   4.26952 255 255 255
0.411457 -1.09949  4.62751 255 255 255
 0.648068 -0.844261   4.94257 255 255 255
 1.07645 -0.43429  5.18164 255 255 255
 1.54073 -0.12253  4.64078 255 255 255
  1.10781 -0.395671   5.13693 255 255 255
  1.07831 -0.431521   5.23783 255 255 255
0.174826 -1.12049  4.78021 255 255 255
  0.57852 -0.802228   5.23683 255 255 255
  1.27857 -0.293555   4.99667 255 255 255
  1.07563 -0.491437   4.22247 255 255 255
 0.836407 -0.706629   4.29591 255 255 255
  1.01346 -0.508197   4.87648 255 255 255
 0.761212 -0.797666   4.21216 255 255 255
 1.14599 -0.43279  4.62193 255 255 255
0.545986 -1.12784    3.876 255 255 255
 0.730863 -0.651605   5.42939 255 255 255
 0.958356 -0.603598   4.62257 255 255 255
 0.778702 -0.831766   4.11419 255 255 255
0.298891 -1.01777   4.8581 255 255 255
 0.885007 -0.707029   4.76834 255 255 255
  1.18286 -0.331466   5.06511 255 255 255
 0.730875 -0.856975    3.9668 255 255 255
  1.12009 -0.409998   4.96868 255 255 255
  1.21387 -0.298226   4.19287 255 255 255
  1.09042 -0.415228   4.99989 255 255 255
0.233439 -0.99069  5.08455 255 255 255
  0.89896 -0.528381   5.40505 255 255 255
  0.96823 -0.560763   5.15085 255 255 255
   1.48667 -0.0876203    4.42437 255 255 255
 0.805889 -0.709322   5.08887 255 255 255
   1.3228 -0.256006   4.41971 255 255 255
0.22931 -1.0743 4.92354 255 255 255
  1.03524 -0.492903   4.90145 255 255 255
  1.01579 -0.506379   4.94736 255 255 255
 1.39287 -0.14951  4.30687 255 255 255
  1.07792 -0.449963   5.05556 255 255 255
  1.37153 -0.250697    4.7996 255 255 255
 1.04945 -0.47548  4.91611 255 255 255
  1.13687 -0.448265   4.78691 255 255 255
  1.45794 -0.131247   4.42049 255 255 255
 0.780078 -0.776918   4.74307 255 255 255
  1.24943 -0.313878   5.02749 255 255 255
 0.803694 -0.753138   4.24739 255 255 255
  1.44842 -0.208878   4.74407 255 255 255
 0.829564 -0.682742   4.83591 255 255 255
  1.09179 -0.396893   5.06767 255 255 255
  1.31212 -0.287053   4.50217 255 255 255
  1.51441 -0.127372   4.50749 255 255 255
   1.2042 -0.387905   4.63633 255 255 255
 0.965776 -0.551675    5.1732 255 255 255
 0.983789 -0.566516   4.31756 255 255 255
  1.34097 -0.293837   4.93718 255 255 255
  1.54127 -0.067715   4.51149 255 255 255
  1.47124 -0.180987    4.6837 255 255 255
1.33846 -0.2794  4.7552 255 255 255
-0.472041  -1.68382   4.40639 255 255 255
 0.683807 -0.936966   4.21224 255 255 255
 0.800462 -0.790591   4.16999 255 255 255
0.450198 -1.19427  3.81982 255 255 255
  1.18009 -0.378522   4.93019 255 255 255
 0.835026 -0.730212   4.30871 255 255 255
  1.06911 -0.474759   5.21538 255 255 255
  1.15123 -0.393394   4.95426 255 255 255
  1.36446 -0.195874   4.33708 255 255 255
  0.90596 -0.532432   5.43898 255 255 255
 0.480736 -0.825184   5.23452 255 255 255
  1.44401 -0.149986   4.46557 255 255 255
  1.48759 -0.114998   4.46388 255 255 255
 0.895089 -0.636343   4.12473 255 255 255
  1.00668 -0.541988   4.65801 255 255 255
 1.28186 -0.22658  4.13479 255 255 255
  1.10294 -0.417808   5.20553 255 255 255
 0.925305 -0.669312   3.87327 255 255 255
 0.399678 -0.906278   5.08605 255 255 255
 0.412904 -0.904959   5.14607 255 255 255
  1.39887 -0.208504    4.4778 255 255 255
 0.821415 -0.705813    4.8979 255 255 255
  1.12643 -0.406962   4.21706 255 255 255
  1.49969 -0.186303   4.79337 255 255 255
 0.525353 -0.791554   5.29674 255 255 255
 0.819148 -0.693959   5.02743 255 255 255
 0.979429 -0.566417   4.54681 255 255 255
 0.966871 -0.574485   5.16243 255 255 255
-0.492897  -1.77088    4.1773 255 255 255
 0.836129 -0.687433   5.02793 255 255 255
 0.984788 -0.505983   4.89592 255 255 255
   1.1622 -0.426612    4.5615 255 255 255
0.377379 -1.29367  4.23429 255 255 255
 1.08182 -0.46468  4.73217 255 255 255
  1.36072 -0.261198   4.65768 255 255 255
 0.958366 -0.568002   4.33719 255 255 255
   1.1956 -0.313472   4.23842 255 255 255
  1.42724 -0.258116   5.02087 255 255 255
 0.750761 -0.814513   4.52944 255 255 255
  1.04318 -0.496939   4.40389 255 255 255
0.433075  -1.2571  3.71197 255 255 255
 0.793882 -0.791951   3.99588 255 255 255
   1.4247 -0.172466   4.44607 255 255 255
0.178421 -1.21694  4.44968 255 255 255
  1.40145 -0.239374   4.85131 255 255 255
  1.26889 -0.321783   4.51796 255 255 255
  1.20981 -0.317492   4.19961 255 255 255
0.482691 -1.16074  3.75678 255 255 255
0.663208 -1.00103  4.15636 255 255 255
  1.42885 -0.223874   4.84465 255 255 255
 0.630586 -0.768153   5.17613 255 255 255
 0.876717 -0.721193   3.94915 255 255 255
0.956192 -0.57066  4.85056 255 255 255
   1.46126 -0.0818005    4.34247 255 255 255
 1.33248 -0.28245  4.63296 255 255 255
  1.16279 -0.409622   4.73867 255 255 255
  1.31894 -0.202751   4.12309 255 255 255
 0.838766 -0.589114   5.40521 255 255 255
  1.26161 -0.344187   4.54431 255 255 255
 0.719677 -0.885882   4.03422 255 255 255
 0.478987 -0.816633   5.20543 255 255 255
  1.11654 -0.412423   5.19297 255 255 255
 0.429926 -0.864724   5.19424 255 255 255
 0.869123 -0.537553   4.82465 255 255 255
  1.26674 -0.301817   4.72395 255 255 255
  1.42238 -0.146596   4.34692 255 255 255
 0.753767 -0.789323   3.83708 255 255 255
0.478352 -1.10468  4.37163 255 255 255
0.527547 -1.17036  3.89583 255 255 255
  1.33218 -0.279796   4.79267 255 255 255
 0.789767 -0.681596   4.07873 255 255 255
  1.42765 -0.199798   4.54188 255 255 255
  1.08458 -0.427851   4.90511 255 255 255
  1.06054 -0.491008   4.50237 255 255 255
  1.15755 -0.415551   4.75323 255 255 255
  1.36945 -0.254396   4.86733 255 255 255
  1.23908 -0.335107   4.95586 255 255 255
 1.31801 -0.27246  4.44917 255 255 255
 0.700718 -0.671841    5.4236 255 255 255
0.535798 -1.04035  4.66489 255 255 255
  1.54707 -0.131402   4.56982 255 255 255
  1.52916 -0.156432    4.6858 255 255 255
  1.29006 -0.328025   4.56672 255 255 255
  1.58725 -0.114428   4.59369 255 255 255
  1.04866 -0.499812   4.83714 255 255 255
  1.46004 -0.189534   4.64203 255 255 255
 0.645674 -0.841511   4.96153 255 255 255
 0.983851 -0.555046   4.02299 255 255 255
 1.25756 -0.33627  4.66951 255 255 255
 0.287203 -0.997981   4.78894 255 255 255
  1.48307 -0.106772   4.40874 255 255 255
  1.42942 -0.205868   4.70652 255 255 255
  1.29191 -0.273112   4.36056 255 255 255
0.538533 -1.01159  4.72763 255 255 255
   1.46916 -0.0914631    4.37748 255 255 255
  1.43869 -0.119321   4.33393 255 255 255
  1.12866 -0.448865   4.58481 255 255 255
  1.40111 -0.197349   4.37546 255 255 255
-0.0813048   -1.24258    4.82835 255 255 255
  1.25443 -0.333821   4.86533 255 255 255
0.279861 -1.43247  3.71685 255 255 255
 0.641024 -0.958947   3.84156 255 255 255
  1.34187 -0.229096   4.38221 255 255 255
-0.56751 -1.85884  3.86583 255 255 255
  1.17105 -0.358234   4.29563 255 255 255
 0.868371 -0.750587   3.97252 255 255 255
  0.86781 -0.699171   4.06443 255 255 255
  1.81363 -0.359832   5.45629 255 255 255
  1.09541 -0.448629   4.47768 255 255 255
   1.8423 -0.333644   5.41373 255 255 255
-0.601614  -1.88565   3.81916 255 255 255
  1.03167 -0.460212   5.02321 255 255 255
   1.1338 -0.391721   4.01847 255 255 255
 0.527339 -0.758417   5.31492 255 255 255
 0.694177 -0.871746   4.69256 255 255 255
 0.699625 -0.902832   4.36988 255 255 255
  1.24273 -0.312626    4.9692 255 255 255
  1.50808 -0.141854   4.61029 255 255 255
1.08388 -0.4448 4.76648 255 255 255
0.628536 -0.97944  4.24502 255 255 255
  1.36318 -0.136243   4.21897 255 255 255
  1.35969 -0.223983   4.44365 255 255 255
  1.09657 -0.458218   4.86756 255 255 255
0.832521 -0.74641  4.40447 255 255 255
  1.88153 -0.309007   5.35207 255 255 255
0.550978 -1.00671  4.16365 255 255 255
   1.8414 -0.343268   5.39757 255 255 255
   1.60399 -0.0802392    4.53197 255 255 255
 0.795201 -0.742243   5.01218 255 255 255
  1.82993 -0.344708   5.42904 255 255 255
   1.58912 -0.0709165    4.50172 255 255 255
  1.02008 -0.505662   5.14023 255 255 255
  1.31844 -0.296073   4.52588 255 255 255
 0.880437 -0.584848    5.4603 255 255 255
 0.699431 -0.665729   5.37751 255 255 255
 0.608828 -0.990801   3.94597 255 255 255
0.205095 -1.16472   4.6732 255 255 255
  1.08788 -0.446631   5.18834 255 255 255
  1.46916 -0.164832    4.6586 255 255 255
0.654447 -0.94139  3.82359 255 255 255
 0.869569 -0.626759   5.24369 255 255 255
 1.18037 -0.37563  4.88348 255 255 255
  1.37194 -0.210337    4.3826 255 255 255
   1.4029 -0.223021   4.56991 255 255 255
  1.12128 -0.378581   5.08838 255 255 255
 0.749184 -0.821094    4.6217 255 255 255
  1.34968 -0.241802   4.52442 255 255 255
 0.903061 -0.696332   4.19507 255 255 255
0.523519 -1.03483  4.03879 255 255 255
   1.56257 -0.0794715    4.49769 255 255 255
 0.937966 -0.595958    5.2454 255 255 255
0.230094 -1.03535  4.93939 255 255 255
 0.808891 -0.726899   4.25485 255 255 255
  1.23107 -0.338617   4.77802 255 255 255
 0.814404 -0.743681   4.11973 255 255 255
 0.906902 -0.702751   4.07711 255 255 255
 0.842466 -0.711519   3.85017 255 255 255
  1.07339 -0.483835    5.1123 255 255 255
  1.40454 -0.187656   4.63619 255 255 255
  1.10425 -0.413306   5.17677 255 255 255
  0.78305 -0.701829    4.7321 255 255 255
  0.96464 -0.564433   5.11464 255 255 255
  1.16837 -0.416509   4.46384 255 255 255
  1.27518 -0.228914   4.27645 255 255 255
  1.19837 -0.338439   4.33842 255 255 255
 0.805656 -0.769701   4.12195 255 255 255
 0.926205 -0.695271   4.27549 255 255 255
 0.543383 -0.844402   5.03036 255 255 255
 0.762563 -0.641885   5.38045 255 255 255
 0.893168 -0.635879   4.85491 255 255 255
   1.1832 -0.402733   4.70456 255 255 255
  1.27469 -0.294262   4.92798 255 255 255
 0.869182 -0.692822   4.10096 255 255 255
  1.32609 -0.259597   4.54923 255 255 255
 0.664556 -0.845192     4.935 255 255 255
 0.671392 -0.914071   3.85142 255 255 255
  1.05922 -0.534565   5.18995 255 255 255
-0.0845717    -1.4381    4.24207 255 255 255
  1.82534 -0.395055   5.49479 255 255 255
  1.17991 -0.355808   4.15067 255 255 255
  1.30979 -0.285576   4.51284 255 255 255
  1.09842 -0.450024   4.29201 255 255 255
 0.537051 -0.844616   5.07694 255 255 255
   1.3343 -0.224841   4.38775 255 255 255
 1.08521 -0.43984  5.27637 255 255 255
  1.00792 -0.525378   4.71151 255 255 255
  1.02385 -0.516792   4.49837 255 255 255
 0.455367 -0.877179   4.99952 255 255 255
0.466548 -1.14343  3.70908 255 255 255
 1.49711 -0.17813  4.59559 255 255 255
  0.42784 -0.897296   5.19097 255 255 255
  1.05533 -0.471351   4.22257 255 255 255
    1.279 -0.331163   4.58741 255 255 255
0.338847 -1.26393  4.27353 255 255 255
  1.00156 -0.544726   4.16904 255 255 255
 0.932326 -0.555646   4.88881 255 255 255
  1.12497 -0.387551   5.07276 255 255 255
0.475316 -1.15583  4.07619 255 255 255
0.383741 -1.36374  3.84183 255 255 255
  1.36034 -0.208915   4.31212 255 255 255
  1.86917 -0.383687   5.48742 255 255 255
0.477121 -0.88882  4.95236 255 255 255
 0.654583 -0.961336    3.9411 255 255 255
 0.603613 -0.968472   3.93868 255 255 255
  1.42482 -0.222591   4.74839 255 255 255
  1.78068 -0.349789   5.39706 255 255 255
  1.53092 -0.144441   4.61066 255 255 255
  1.55287 -0.136306   4.59968 255 255 255
  1.38042 -0.203574   4.39061 255 255 255
 0.802124 -0.742431   4.20288 255 255 255
  1.35563 -0.272972   4.87003 255 255 255
  1.00237 -0.530808   4.72935 255 255 255
 0.851419 -0.695148   4.08438 255 255 255
0.552811 -1.08568  4.52475 255 255 255
  1.38523 -0.234775   4.52954 255 255 255
  1.13619 -0.395278   4.18773 255 255 255
 0.925484 -0.615477   4.14909 255 255 255
-0.487836  -1.37588   5.02052 255 255 255
 0.945741 -0.563251   4.48766 255 255 255
 0.898997 -0.591427   5.49646 255 255 255
-0.234513  -1.60871   4.17787 255 255 255
 0.679466 -0.667705   5.39788 255 255 255
  1.16864 -0.404796   4.41269 255 255 255
  1.85846 -0.306861   5.35248 255 255 255
  1.11564 -0.392728   5.09775 255 255 255
0.132072 -1.57786  3.43466 255 255 255
  1.81809 -0.340593   5.40397 255 255 255
 0.55067 -1.05075  4.07151 255 255 255
 0.530351 -0.818442   5.12127 255 255 255
  1.87728 -0.269795   5.26825 255 255 255
-0.143226  -1.25826   4.95431 255 255 255
0.954083  -0.6295  4.08777 255 255 255
  1.46541 -0.199808   4.70181 255 255 255
0.284914 -1.42894  3.62855 255 255 255
  1.06986 -0.448362    5.0967 255 255 255
  1.11602 -0.419351   5.10895 255 255 255
 0.888416 -0.630806   5.11279 255 255 255
 0.843441 -0.762488   4.05001 255 255 255
 0.974343 -0.551003    4.4141 255 255 255
  1.36502 -0.260735   4.93445 255 255 255
  1.43545 -0.226682    4.8224 255 255 255
-0.486984  -1.86897   3.54109 255 255 255
  1.02163 -0.516004   4.18167 255 255 255
-0.0048396   -1.68145    3.41593 255 255 255
  1.17399 -0.358003   5.03764 255 255 255
-0.0244134   -1.30795    4.68879 255 255 255
  1.31739 -0.287155   4.89532 255 255 255
  1.31197 -0.353216    4.8464 255 255 255
0.635188 -1.00799   3.7702 255 255 255
0.0795326  -1.10196    5.1005 255 255 255
 0.318338 -0.936976   5.22859 255 255 255
 0.559401 -0.834408   3.92593 255 255 255
  1.16805 -0.325169   4.10864 255 255 255
 0.835392 -0.725045   4.01944 255 255 255
 0.690133 -0.870642   4.10589 255 255 255
-0.0903364   -1.43647    4.37307 255 255 255
0.120095 -1.22549  4.65471 255 255 255
-0.567374  -1.88952   3.53483 255 255 255
 0.442076 -0.913478   5.28507 255 255 255
  1.31113 -0.293476   4.93319 255 255 255
0.153347 -1.05139   5.1391 255 255 255
  1.68272 -0.299057   5.26987 255 255 255
  1.09543 -0.425597   5.23935 255 255 255
-0.216939  -1.80687   3.44602 255 255 255
-0.021819  -1.19936   4.99887 255 255 255
   1.0767 -0.459764   4.48325 255 255 255
-0.587191  -1.64851   4.59827 255 255 255
  1.14073 -0.377237   4.22419 255 255 255
0.930399 -0.57791  4.23574 255 255 255
 0.852941 -0.718998   4.32356 255 255 255
 0.648319 -0.914578   3.97696 255 255 255
   1.1954 -0.326343   4.20042 255 255 255
 0.54968 -1.02121  4.15768 255 255 255
  1.83213 -0.303086   5.31914 255 255 255
  1.11606 -0.422184   5.11747 255 255 255
-0.0498027   -1.13968    5.10371 255 255 255
 0.918669 -0.583045   4.31459 255 255 255
 0.875237 -0.608798   3.97725 255 255 255
  1.12639 -0.393261    4.9647 255 255 255
0.488624   -0.833  5.20611 255 255 255
 0.65026 -0.91416  3.94334 255 255 255
0.542034 -1.08619  4.02678 255 255 255
   1.42631 -0.0941597    4.30827 255 255 255
0.677593 -0.93165  3.82532 255 255 255
0.214288 -1.21256  4.90579 255 255 255
 0.419858 -0.866573   5.21306 255 255 255
   1.49783 -0.0902237    4.34451 255 255 255
  1.38357 -0.196131   4.42064 255 255 255
0.346732 -1.24135  3.92452 255 255 255
0.537996 -1.08923  3.93456 255 255 255
 0.792364 -0.820654   4.04776 255 255 255
 0.685066 -0.963976   4.11109 255 255 255
0.252184 -1.42775  4.08454 255 255 255
 0.965468 -0.616855   4.85226 255 255 255
 0.949634 -0.579969   4.28606 255 255 255
0.263942 -1.45616  3.54834 255 255 255
0.208432 -1.46624  3.43794 255 255 255
0.127255 -1.17093  4.66413 255 255 255
  1.00302 -0.515656   4.99272 255 255 255
  1.40849 -0.238769   4.64157 255 255 255
 0.776048 -0.831833   3.90702 255 255 255
  1.05851 -0.414507   5.22513 255 255 255
  1.07653 -0.463259   4.68273 255 255 255
 0.649548 -0.752263   5.40321 255 255 255
 0.790663 -0.802479    3.6734 255 255 255
  1.48332 -0.111753   4.38971 255 255 255
  1.31431 -0.289311   4.92663 255 255 255
  1.02071 -0.494056   5.16395 255 255 255
0.998037 -0.46596  3.88886 255 255 255
  1.29531 -0.310371   4.65751 255 255 255
 0.438582 -0.856023   5.27885 255 255 255
-0.52389 -1.75633  4.24657 255 255 255
  1.34244 -0.135505   4.15671 255 255 255
   1.7772 -0.282976   5.23599 255 255 255
 0.485097 -0.811756   5.28814 255 255 255
0.150434 -1.11894  4.96122 255 255 255
 0.807652 -0.728952   4.71617 255 255 255
  1.14859 -0.375742   4.82666 255 255 255
 0.804349 -0.748186   4.70577 255 255 255
 0.364818 -0.967341   5.07789 255 255 255
-0.362067  -1.71616   3.97149 255 255 255
 0.868989 -0.647969   5.03215 255 255 255
0.511001 -1.14668  3.89593 255 255 255
   1.3261 -0.177639   4.12553 255 255 255
 0.835767 -0.685051   4.26165 255 255 255
0.0774003  -1.64309   3.56236 255 255 255
 1.41748 -0.25209  4.82799 255 255 255
  1.26168 -0.342021   4.84234 255 255 255
  1.16909 -0.375591   4.84247 255 255 255
-0.0447489   -1.38406    4.50499 255 255 255
   1.0681 -0.462354   5.01845 255 255 255
  1.16188 -0.393418   4.88721 255 255 255
  1.11811 -0.445703    4.5443 255 255 255
-0.00182302    -1.37227     4.39897 255 255 255
  1.41753 -0.211739   4.53877 255 255 255
 1.29537 -0.23713  4.23815 255 255 255
 0.573533 -0.804395    5.1082 255 255 255
  1.80177 -0.341861   5.44921 255 255 255
  1.24476 -0.282783   4.23353 255 255 255
  1.06422 -0.478684   4.52693 255 255 255
0.185946 -1.02529  5.08448 255 255 255
  1.16943 -0.376059   4.33176 255 255 255
  1.35401 -0.180884   4.25644 255 255 255
0.413788 -1.09522  4.61096 255 255 255
-0.180868    -1.574   4.32834 255 255 255
 0.945277 -0.564317   5.19201 255 255 255
  1.41541 -0.201096   4.51629 255 255 255
-0.296742   -1.4128   4.84561 255 255 255
0.426205 -1.26587  3.58779 255 255 255
  1.06896 -0.445326    3.9443 255 255 255
 0.742288 -0.829718   4.07497 255 255 255
 0.794247 -0.766376   3.80854 255 255 255
  1.28357 -0.272269   4.24124 255 255 255
  1.08657 -0.468214   4.71325 255 255 255
0.512619 -1.20432  3.66928 255 255 255
  1.14874 -0.371328   4.11878 255 255 255
 0.458425 -0.886351   5.22219 255 255 255
 1.20191 -0.26161  3.97322 255 255 255
  0.61792 -0.921694   4.44207 255 255 255
0.508919 -1.11829  4.37874 255 255 255
  1.31202 -0.285989   4.96025 255 255 255
  1.24138 -0.344372   4.82412 255 255 255
 0.579205 -0.746754   5.27696 255 255 255
 0.893281 -0.714969   3.96842 255 255 255
0.849397 -0.77734  3.88238 255 255 255
  1.04167 -0.476127   4.01895 255 255 255
  1.19662 -0.385657   4.50529 255 255 255
 0.916055 -0.607261   3.82381 255 255 255
  1.13102 -0.454742   4.40956 255 255 255
0.489671 -1.17568  3.97757 255 255 255
 0.754136 -0.849999   4.19824 255 255 255
 0.837921 -0.707287   3.86437 255 255 255
 0.702201 -0.926943   4.05722 255 255 255
  1.03292 -0.479508   5.12725 255 255 255
-0.14859  -1.5525  4.19387 255 255 255
   1.0869 -0.434131   3.94129 255 255 255
0.916517 -0.60757  4.35427 255 255 255
  1.31759 -0.292024   4.82971 255 255 255
 0.807975 -0.839607   4.04453 255 255 255
 0.46423 -1.15345  4.46412 255 255 255
0.635705 -1.09747   3.9691 255 255 255
0.210832 -1.10836  4.77375 255 255 255
-0.361771  -1.67808   3.93476 255 255 255
0.0106729  -1.28038   4.64742 255 255 255
  1.11087 -0.383206   4.08634 255 255 255
 0.44272 -0.85469  5.14522 255 255 255
  1.25911 -0.220912   4.17625 255 255 255
  1.33783 -0.277886   4.69651 255 255 255
  0.63283 -0.923119   3.99005 255 255 255
 1.31561 -0.29676  4.79292 255 255 255
 0.958673 -0.556303   4.34779 255 255 255
 0.875581 -0.650601   4.85667 255 255 255
  1.30584 -0.299505   4.58288 255 255 255
 0.627826 -0.961177   3.88444 255 255 255
 0.711066 -0.834866   4.24754 255 255 255
   1.0711 -0.431902   3.81072 255 255 255
  1.07335 -0.441842   4.10264 255 255 255
0.527697  -1.0239   4.1186 255 255 255
  1.34957 -0.162378   4.16826 255 255 255
  1.18374 -0.278484   3.92612 255 255 255
-0.487091  -1.80733   3.94377 255 255 255
  1.22814 -0.228047   3.99873 255 255 255
  1.07301 -0.408944     5.219 255 255 255
 0.898417 -0.606132   4.88325 255 255 255
 0.954997 -0.578698   4.23425 255 255 255
 0.707182 -0.884672   4.41961 255 255 255
  1.00939 -0.536404   4.36489 255 255 255
-0.0199091   -1.62698    3.81926 255 255 255
 0.883466 -0.703233   4.15655 255 255 255
0.256599 -1.02161  4.94361 255 255 255
  0.98924 -0.501478   4.91573 255 255 255
  1.24123 -0.322165   5.05929 255 255 255
0.377615 -1.26628  3.48498 255 255 255
 0.845667 -0.708522   4.14204 255 255 255
   1.41592 -0.0897049    4.22469 255 255 255
 1.34226 -0.27539  4.94307 255 255 255
 0.747392 -0.839229   3.93298 255 255 255
  1.38661 -0.248187   4.85512 255 255 255
  1.44812 -0.217019   4.82385 255 255 255
  1.31497 -0.238393   4.32504 255 255 255
0.341331 -1.38932  3.70066 255 255 255
  1.40789 -0.245523   4.77457 255 255 255
  1.57218 -0.346409   5.41861 255 255 255
-0.219605  -1.54927   4.09826 255 255 255
0.306244   -1.419   4.0819 255 255 255
 0.993761 -0.531019   4.51389 255 255 255
 1.52872 -0.10475  4.51308 255 255 255
0.590002  -1.0321  4.20714 255 255 255
 0.936235 -0.597428   3.97022 255 255 255
0.812442 -1.02942  4.77666 255 255 255
0.0850003  -1.21489    4.7503 255 255 255
  1.3352 -0.25989  4.44553 255 255 255
0.0410423  -1.11076    4.9915 255 255 255
  1.49929 -0.165558   4.64361 255 255 255
 0.749248 -0.899142   3.93555 255 255 255
  1.23958 -0.330778   5.07484 255 255 255
   1.6234 -0.298851   5.41813 255 255 255
        1 -0.525094   5.05805 255 255 255
  1.31657 -0.298721   4.63698 255 255 255
 1.03406 -0.51116  4.63926 255 255 255
  0.38069 -0.879914   5.19824 255 255 255
  0.98594 -0.550231   4.51154 255 255 255
 0.895811 -0.657921   3.97018 255 255 255
  1.02532 -0.521594    4.8022 255 255 255
0.453335 -1.10879  4.58532 255 255 255
 0.946095 -0.598361   4.02212 255 255 255
0.779836  -0.6927  4.84008 255 255 255
0.448367  -1.1906  4.17503 255 255 255
 0.956458 -0.607358   3.95049 255 255 255
  1.33719 -0.265318   4.66407 255 255 255
 0.84156 -0.69011  4.09839 255 255 255
 0.924388 -0.589071   4.06026 255 255 255
  0.96827 -0.576088   4.00427 255 255 255
   1.4042 -0.227301   4.72985 255 255 255
   1.2529 -0.222099   4.16104 255 255 255
  1.05991 -0.478735   4.90714 255 255 255
  1.00793 -0.522627   4.37969 255 255 255
 0.663354 -0.985519   4.08598 255 255 255
 0.954449 -0.609841   4.04142 255 255 255
 1.55543 -0.34091  5.42478 255 255 255
0.263585 -1.46547  3.70156 255 255 255
  1.40299 -0.245488   4.64476 255 255 255
  1.33194 -0.273075   4.52051 255 255 255
 0.921293 -0.644669   3.95147 255 255 255
  1.55573 -0.344693   5.41778 255 255 255
 0.883665 -0.684066   4.67699 255 255 255
0.286653 -1.08412  4.71776 255 255 255
   1.48363 -0.0665812    4.34927 255 255 255
 0.697354 -0.857395    4.1119 255 255 255
   1.1441 -0.378428   5.03729 255 255 255
  1.59642 -0.316018    5.3343 255 255 255
  1.32068 -0.185551   4.17301 255 255 255
 0.890418 -0.691612   3.83574 255 255 255
0.565476 -1.01982  4.68148 255 255 255
 0.46547 -1.23651   4.3022 255 255 255
  1.39575 -0.167176   4.36911 255 255 255
  1.44375 -0.137104   4.48977 255 255 255
  1.43886 -0.132332   4.36226 255 255 255
     0.82 -0.692824   4.79783 255 255 255
0.106446 -1.05202  5.15976 255 255 255
  1.62516 -0.128734   4.58502 255 255 255
  1.12782 -0.390152    4.1159 255 255 255
   1.1587 -0.367292   4.99171 255 255 255
0.0632424  -1.39593   4.17727 255 255 255
 0.266697 -0.975879   5.07016 255 255 255
0.825505 -0.84885   4.0304 255 255 255
 0.658638 -0.765074   5.12714 255 255 255
 0.857639 -0.609938   5.20427 255 255 255
  1.57404 -0.339404   5.42951 255 255 255
  1.13087 -0.384637   3.89697 255 255 255
 0.779173 -0.830465   4.16372 255 255 255
 0.787773 -0.719979    4.6716 255 255 255
  1.51765 -0.119931   4.51732 255 255 255
 0.889201 -0.664172    4.0208 255 255 255
  1.22456 -0.370353   4.87346 255 255 255
  1.31497 -0.128956   4.15173 255 255 255
  1.58823 -0.318476   5.34185 255 255 255
 0.785524 -0.775161   4.36857 255 255 255
 0.861365 -0.662748   4.92526 255 255 255
   1.2584 -0.203189    4.0865 255 255 255
0.514786 -1.09252  3.57388 255 255 255
 0.505826 -0.817155   5.10851 255 255 255
 0.991041 -0.552025   4.34976 255 255 255
    1.204 -0.389074   4.79534 255 255 255
 0.915254 -0.617052   3.96809 255 255 255
 0.960094 -0.529658   5.33729 255 255 255
-0.504076  -1.44042   4.90635 255 255 255
0.567112 -1.06941  4.06154 255 255 255
 0.818701 -0.654551   4.76707 255 255 255
 0.760914 -0.802574   4.27501 255 255 255
0.00808364   -1.30564    4.50131 255 255 255
  0.37367 -0.929897   5.03171 255 255 255
  1.32127 -0.291778   4.74187 255 255 255
 0.984621 -0.538099   4.29071 255 255 255
  1.17861 -0.374065   4.94688 255 255 255
  1.34368 -0.223047   4.37383 255 255 255
  1.30728 -0.287618   4.45832 255 255 255
  0.91329 -0.614476   4.26352 255 255 255
0.0771986  -1.09653   5.12669 255 255 255
 0.433917 -0.902015      5.18 255 255 255
  1.10454 -0.425077   3.95581 255 255 255
 0.450965 -0.881605   5.04507 255 255 255
  1.06305 -0.456012   5.25546 255 255 255
  1.40813 -0.157572   4.41396 255 255 255
  1.55105 -0.264344   5.26601 255 255 255
  1.17005 -0.372927   4.28362 255 255 255
  1.28506 -0.181759   4.12243 255 255 255
  1.00159 -0.524949   4.87023 255 255 255
 0.334684 -0.963372   4.90942 255 255 255
  1.18789 -0.282467   3.99247 255 255 255
 1.25041 -0.18666  4.01756 255 255 255
 0.885153 -0.705334   4.30446 255 255 255
  1.40128 -0.133877   4.35099 255 255 255
  1.23675 -0.309186   4.20584 255 255 255
 -0.1586 -1.51066  4.18109 255 255 255
  1.47681 -0.107649   4.45807 255 255 255
  1.36296 -0.153687   4.21872 255 255 255
  1.18863 -0.374669   4.35546 255 255 255
  0.67647 -0.920394   4.27469 255 255 255
 0.885841 -0.624279   4.88733 255 255 255
  1.21523 -0.343523   4.35892 255 255 255
  1.00694 -0.516854   5.26324 255 255 255
 0.975226 -0.557934   4.38091 255 255 255
 0.47237 -1.15542  4.48343 255 255 255
 0.311479 -0.947753   5.07175 255 255 255
  1.23294 -0.316634   4.29049 255 255 255
 0.796961 -0.907375    3.9022 255 255 255
 0.361478 -0.987451   4.83255 255 255 255
 0.674221 -0.862794   4.84194 255 255 255
  1.11191 -0.411077   5.15495 255 255 255
 0.982789 -0.541838   5.15018 255 255 255
 0.514682 -0.816156   5.23591 255 255 255
 0.292519 -0.941049   5.02237 255 255 255
0.389872 -1.16871   3.5129 255 255 255
0.436474 -1.33299  3.55866 255 255 255
  1.04721 -0.466629   5.08596 255 255 255
0.060121 -1.25278  4.60639 255 255 255
 0.525199 -0.798679   5.27905 255 255 255
 0.449413 -0.865391   5.01328 255 255 255
 0.862417 -0.699942   3.86973 255 255 255
  1.28503 -0.313953   4.85594 255 255 255
  1.12342 -0.326305    3.7999 255 255 255
   1.44848 -0.0967415    4.24868 255 255 255
  1.04042 -0.480648   4.05362 255 255 255
0.184092 -1.33922  3.32182 255 255 255
  1.26479 -0.333047   4.88879 255 255 255
0.670679 -1.00791  3.99863 255 255 255
-0.362757  -1.66888   4.17803 255 255 255
  1.05461 -0.450939   4.95457 255 255 255
 0.241937 -0.969228    5.1303 255 255 255
 0.842874 -0.785348   3.98005 255 255 255
0.655316 -0.89447  4.81124 255 255 255
 0.617449 -0.964472   4.47762 255 255 255
   1.5076 -0.166471   4.72701 255 255 255
  1.12681 -0.425968   4.92478 255 255 255
  1.11473 -0.437184   4.27907 255 255 255
  1.41841 -0.203276   4.58355 255 255 255
  1.31553 -0.241715   4.49446 255 255 255
 0.837085 -0.711875   4.16169 255 255 255
   1.51268 -0.0404601    4.36286 255 255 255
0.224996 -1.50855  3.87795 255 255 255
  1.22313 -0.319224    4.2761 255 255 255
 0.936603 -0.533323   5.41846 255 255 255
0.226674 -1.01544  4.92235 255 255 255
  1.37603 -0.261316   4.88603 255 255 255
0.527549 -1.03315  4.09082 255 255 255
0.282179 -1.23598  4.40209 255 255 255
  1.06887 -0.482013    4.2403 255 255 255
  1.07766 -0.461519   4.27833 255 255 255
  0.49477 -0.852636   5.21171 255 255 255
  1.21077 -0.341419   5.07046 255 255 255
0.540579 -1.11473  4.36653 255 255 255
  1.06359 -0.476095   4.89641 255 255 255
 0.823667 -0.859064   3.96687 255 255 255
  1.08425 -0.433045   4.94395 255 255 255
  0.82242 -0.717853   3.89771 255 255 255
 0.883115 -0.719288   4.30003 255 255 255
  1.01006 -0.531844    4.4106 255 255 255
   1.0674 -0.466902   4.90502 255 255 255
0.155244 -1.08681  4.80628 255 255 255
  1.13841 -0.383068   4.11644 255 255 255
   1.45692 -0.0123858    4.26585 255 255 255
 0.799325 -0.640122   5.34268 255 255 255
 0.958879 -0.667924   4.10872 255 255 255
0.947164 -0.61035  4.10269 255 255 255
 0.823135 -0.695307   4.19131 255 255 255
  1.18094 -0.350588   3.96236 255 255 255
  1.17761 -0.394583   4.83142 255 255 255
  1.17182 -0.354234   5.07485 255 255 255
 0.351922 -0.936584   4.95091 255 255 255
  1.20798 -0.381378   4.49952 255 255 255
 0.827739 -0.645645   4.87001 255 255 255
0.0882068  -1.15489   4.63472 255 255 255
  1.09596 -0.427667   3.87693 255 255 255
  1.10133 -0.421841   5.02298 255 255 255
 0.711785 -0.825507    4.2785 255 255 255
 0.485882 -0.827359    5.2345 255 255 255
  1.10773 -0.401953   3.98556 255 255 255
0.166749 -1.12906  4.77666 255 255 255
-0.222754   -1.5434    4.1291 255 255 255
  1.30391 -0.285232   4.87019 255 255 255
 0.236494 -0.979576   5.07918 255 255 255
0.571287 -1.20803  3.73715 255 255 255
   1.0927 -0.404002   5.19956 255 255 255
-0.0703103   -1.42697    4.23341 255 255 255
-0.159389  -1.52593   4.10493 255 255 255
  1.10743 -0.486764   4.41165 255 255 255
 0.854838 -0.848235   3.94637 255 255 255
  1.22037 -0.344968   4.97672 255 255 255
 0.888711 -0.570277   3.62205 255 255 255
  1.04539 -0.475617   5.05881 255 255 255
  1.10663 -0.428921   4.26102 255 255 255
 0.970954 -0.488813   5.35395 255 255 255
  1.10992 -0.454258   4.66975 255 255 255
  1.26101 -0.172906   4.01546 255 255 255
 0.894272 -0.683364   3.89428 255 255 255
0.652371  -1.0064  3.90411 255 255 255
  1.34345 -0.103238   4.12271 255 255 255
  1.12542 -0.340427   3.78319 255 255 255
 0.627059 -0.799277   5.02142 255 255 255
  1.38007 -0.264016   4.87983 255 255 255
0.406233 -1.17805  3.74631 255 255 255
  1.10961 -0.404561   4.99317 255 255 255
  1.37722 -0.158154   4.43032 255 255 255
  1.23781 -0.219282   4.10287 255 255 255
 0.668525 -0.843491    4.8044 255 255 255
  1.19678 -0.248434   3.92442 255 255 255
  1.24918 -0.332777   4.78103 255 255 255
  0.64825 -0.919315   4.17142 255 255 255
 0.523055 -0.955014   4.76264 255 255 255
  1.05048 -0.494973   4.19008 255 255 255
 0.772652 -0.882441   4.11904 255 255 255
 0.439573 -0.918725   5.14851 255 255 255
 1.44543 -0.20839  4.78767 255 255 255
  1.03244 -0.504819   4.78244 255 255 255
 0.872435 -0.513459   3.35059 255 255 255
   1.48148 -0.0821372    4.29595 255 255 255
  1.43087 -0.205267   4.70727 255 255 255
  1.34211 -0.260485   4.81678 255 255 255
  0.83033 -0.722069   4.76293 255 255 255
0.970525 -0.52011  3.69588 255 255 255
  1.20713 -0.247703   4.07614 255 255 255
 1.02525 -0.51201  3.63711 255 255 255
  1.19386 -0.411577   4.63919 255 255 255
  1.27509 -0.334755   4.55174 255 255 255
  1.50043 -0.107675   4.44909 255 255 255
  1.01226 -0.540542   4.32351 255 255 255
 0.980231 -0.503358   3.49615 255 255 255
  1.44287 -0.277497   5.03914 255 255 255
  1.02703 -0.504756   5.17609 255 255 255
  1.22305 -0.346565   4.93542 255 255 255
  1.27371 -0.177217    4.0904 255 255 255
  1.00648 -0.470472   3.56141 255 255 255
  1.10648 -0.402731    3.9143 255 255 255
  0.87082 -0.633419   4.90724 255 255 255
 0.410317 -0.915801   5.12162 255 255 255
  0.46979 -0.867174   5.17741 255 255 255
    1.3638 -0.0770606    4.17647 255 255 255
 0.947608 -0.590572    4.1175 255 255 255
-0.109238  -1.44892   4.26533 255 255 255
 0.795534 -0.760356    4.6936 255 255 255
0.574629  -1.0628  3.78011 255 255 255
   1.0663 -0.493241   3.81235 255 255 255
  1.36858 -0.240257   4.58641 255 255 255
  1.16423 -0.332145   3.81682 255 255 255
   1.0298 -0.498177   3.94577 255 255 255
  0.93821 -0.670136    4.1823 255 255 255
  1.01506 -0.611356   4.08107 255 255 255
  1.39227 -0.243673   4.70407 255 255 255
  1.30782 -0.132614   4.09586 255 255 255
  1.13162 -0.375057   3.97317 255 255 255
  1.35985 -0.176332   4.29844 255 255 255
 0.966521 -0.529828   3.49924 255 255 255
0.00272001   -1.34314    4.40413 255 255 255
 0.906922 -0.637188   3.85259 255 255 255
 0.917853 -0.625942   4.17029 255 255 255
  1.14632 -0.391954   3.96201 255 255 255
  0.34785 -0.861905   5.23527 255 255 255
 0.763447 -0.733379   3.49872 255 255 255
 0.923462 -0.622768   5.07258 255 255 255
  1.05246 -0.519886   4.32151 255 255 255
  1.07638 -0.574499   3.91377 255 255 255
1.14271 -0.3177 3.86462 255 255 255
  1.12807 -0.421499   3.95705 255 255 255
  0.88506 -0.556529   5.34393 255 255 255
  1.15334 -0.360301   5.07524 255 255 255
  1.11237 -0.437282   3.94038 255 255 255
  1.12146 -0.402593   3.94156 255 255 255
  1.45598 -0.201389   4.76689 255 255 255
  1.29172 -0.241563   4.31486 255 255 255
  0.83698 -0.750804    3.9891 255 255 255
  1.08394 -0.459497   4.74792 255 255 255
 0.905228 -0.602254   4.26441 255 255 255
  1.03454 -0.536847   4.00193 255 255 255
  1.31064 -0.291339    4.9805 255 255 255
 0.589173 -0.976944   4.17522 255 255 255
 0.825187 -0.705764   4.22104 255 255 255
0.462695 -1.12076  3.42638 255 255 255
 0.790052 -0.771175   3.89372 255 255 255
 0.757802 -0.747905   3.49369 255 255 255
  1.33496 -0.206627   4.34651 255 255 255
0.527654 -1.08195  3.44504 255 255 255
  1.24395 -0.355844    4.5565 255 255 255
0.941567 -0.73064  4.11231 255 255 255
0.983617 -0.54197  3.93256 255 255 255
 0.39857 -1.26032  3.99302 255 255 255
 0.725151 -0.941465   4.44275 255 255 255
0.975349 -0.57388  5.13493 255 255 255
  1.00647 -0.513896   4.90291 255 255 255
  1.12228 -0.385252     3.992 255 255 255
 0.984717 -0.498478   5.36475 255 255 255
 0.870986 -0.755326   3.85295 255 255 255
  1.2898 -0.11549  4.10068 255 255 255
0.236287 -1.09468  4.69521 255 255 255
0.941352 -0.55576  3.59185 255 255 255
  1.37605 -0.163822   4.33908 255 255 255
  0.88033 -0.778984   3.97448 255 255 255
  1.06958 -0.483874   3.86833 255 255 255
 0.56642 -1.09697  3.74619 255 255 255
0.615397 -0.98706  4.11656 255 255 255
 1.53136 -0.09718  4.47752 255 255 255
   1.33879 -0.0989756    4.15508 255 255 255
0.493181 -1.09887  3.76444 255 255 255
0.922476 -0.48545  3.41065 255 255 255
  1.21129 -0.366015   4.93026 255 255 255
  0.82067 -0.726097   3.82506 255 255 255
 0.822113 -0.706344   4.89642 255 255 255
  1.03067 -0.480675   5.34205 255 255 255
 0.817723 -0.892742   3.92761 255 255 255
  0.83202 -0.742867   4.18494 255 255 255
 0.999722 -0.557332   3.95018 255 255 255
 0.828216 -0.761062   3.91418 255 255 255
  1.36931 -0.148831   4.33481 255 255 255
  1.1272 -0.35654  3.96158 255 255 255
 0.963047 -0.682743   3.98867 255 255 255
  1.25715 -0.151804   4.03977 255 255 255
  1.29503 -0.180153   4.22914 255 255 255
  1.47624 -0.137718     4.668 255 255 255
0.800666 -0.80557  3.97644 255 255 255
  1.33225 -0.264528    4.4718 255 255 255
 0.918503 -0.652458   4.06737 255 255 255
  0.58288 -0.977691   4.39182 255 255 255
  1.36937 -0.178525   4.35286 255 255 255
  1.34924 -0.261127   4.76631 255 255 255
   1.55509 -0.0700585    4.46211 255 255 255
  1.25766 -0.328195   4.86941 255 255 255
0.0627007  -1.16263   4.81684 255 255 255
 0.776111 -0.783926   3.94969 255 255 255
 0.92667 -0.66284  3.75095 255 255 255
 0.420134 -0.922538   5.07919 255 255 255
  1.21872 -0.358352   4.84461 255 255 255
  1.35567 -0.273781   4.92251 255 255 255
   1.40478 -0.0734498    4.20669 255 255 255
 0.731578 -0.825204   3.98834 255 255 255
-0.643757  -1.89876   3.74964 255 255 255
 0.877789 -0.686673   3.92683 255 255 255
   1.0483 -0.547135   3.92515 255 255 255
  1.35305 -0.153244   4.37493 255 255 255
  1.22669 -0.362436   4.43215 255 255 255
0.561583 -1.01382   4.7346 255 255 255
  1.18773 -0.337716   3.99016 255 255 255
  1.06623 -0.455465   3.87785 255 255 255
  1.08113 -0.425216   5.00335 255 255 255
  1.04082 -0.496106   3.88993 255 255 255
 0.974864 -0.658612   3.83745 255 255 255
0.287611 -1.38957  4.08466 255 255 255
  1.02501 -0.496738   4.89621 255 255 255
0.590275  -1.0562  4.11149 255 255 255
 0.419517 -0.893181   5.17163 255 255 255
  1.32085 -0.276151   4.94335 255 255 255
-0.324202  -1.64843   4.25464 255 255 255
 0.463127 -0.891459   4.93765 255 255 255
0.237811 -1.26816  4.33833 255 255 255
 0.525732 -0.807859   5.27015 255 255 255
 0.414952 -0.888717    5.1243 255 255 255
  1.23073 -0.235659   3.92055 255 255 255
  1.16916 -0.305055   3.80972 255 255 255
 0.742423 -0.736577    3.3799 255 255 255
 0.903261 -0.689926   4.55256 255 255 255
   1.2423 -0.354861   4.74514 255 255 255
  1.12482 -0.404573   5.04314 255 255 255
0.546269 -1.27203  3.72519 255 255 255
 0.781358 -0.756319   4.58749 255 255 255
 0.318918 -0.951912   5.00915 255 255 255
0.244846  -1.0976  4.74358 255 255 255
 0.406923 -0.993349    4.8979 255 255 255
 0.810083 -0.762362    4.6606 255 255 255
0.523639 -1.08195  3.99689 255 255 255
  1.26154 -0.334238     4.671 255 255 255
 0.983408 -0.565684   5.15178 255 255 255
 0.940485 -0.688385   4.03645 255 255 255
  1.24172 -0.292197   4.32464 255 255 255
  1.0064 -0.53728  4.02074 255 255 255
 0.775262 -0.831677   4.17537 255 255 255
  1.32013 -0.275971   4.62799 255 255 255
-0.414164  -1.44016   4.87253 255 255 255
0.00585037    -1.1982    5.07542 255 255 255
    1.052 -0.491268   5.14738 255 255 255
  1.35332 -0.276241   4.89807 255 255 255
 0.730546 -0.875691   4.11026 255 255 255
   1.0112 -0.514007   3.85235 255 255 255
0.329745 -1.27867  3.62916 255 255 255
0.250685 -1.42602  3.95107 255 255 255
 0.740923 -0.977343   3.80891 255 255 255
 0.909249 -0.549812   5.42366 255 255 255
 0.847934 -0.672859   3.76438 255 255 255
  1.07735 -0.436519   5.08111 255 255 255
 0.934511 -0.699226   3.90394 255 255 255
  1.16837 -0.410781   4.73884 255 255 255
  1.03197 -0.512876   5.27377 255 255 255
 0.883007 -0.645527   3.89688 255 255 255
0.549474 -1.01938  4.11261 255 255 255
  1.07707 -0.449281   4.98224 255 255 255
0.218233 -1.06778   4.8398 255 255 255
0.14654 -1.0107 5.07181 255 255 255
1.12695 -0.3742 3.87046 255 255 255
 0.993419 -0.533167   3.64526 255 255 255
  1.38716 -0.217286   4.57949 255 255 255
  1.01802 -0.536241   4.73567 255 255 255
-0.260854  -1.43142   4.80776 255 255 255
  1.09525 -0.485446   3.95592 255 255 255
  1.20558 -0.393981   4.65939 255 255 255
 0.782256 -0.766546   4.67448 255 255 255
  1.00629 -0.496107   5.33755 255 255 255
  1.07564 -0.490123   4.59387 255 255 255
 0.837851 -0.714178   3.78817 255 255 255
   1.53184 -0.0393211    4.37731 255 255 255
  0.89576 -0.560904   3.68224 255 255 255
 0.932066 -0.561251   3.68686 255 255 255
 0.991804 -0.545242   4.01335 255 255 255
 0.733351 -0.834642   3.94175 255 255 255
   1.48016 -0.0437155    4.27272 255 255 255
 0.978481 -0.569049   5.08673 255 255 255
 0.790146 -0.771215   4.06449 255 255 255
   1.55178 -0.0817141    4.46065 255 255 255
  1.41005 -0.080075   4.23565 255 255 255
  1.15019 -0.372847   4.15982 255 255 255
  1.08808 -0.458571   4.99428 255 255 255
   1.51617 -0.0310842    4.33939 255 255 255
0.610462 -1.04461  4.16331 255 255 255
  1.46426 -0.192494   4.75053 255 255 255
   1.2712 -0.310708   4.45098 255 255 255
0.195295 -1.09407  5.00712 255 255 255
0.751199 -0.67767   5.2997 255 255 255
 0.938012 -0.499727   5.41017 255 255 255
 0.840395 -0.815381   3.91642 255 255 255
 0.778126 -0.745675    3.5787 255 255 255
0.593237 -1.16577  3.73527 255 255 255
 0.85881 -0.67364  4.96122 255 255 255
  1.13275 -0.347032   3.70276 255 255 255
  1.04064 -0.535918   4.10691 255 255 255
   1.2012 -0.299589   4.13931 255 255 255
   1.33838 -0.0921156    4.09219 255 255 255
 0.718276 -0.899516   4.31405 255 255 255
   1.55827 -0.0981247    4.50695 255 255 255
 1.18742 -0.31736  4.15267 255 255 255
   1.36904 -0.0742547    4.20114 255 255 255
   1.0696 -0.452996   5.31689 255 255 255
 1.16416 -0.32945   4.0283 255 255 255
  1.08102 -0.456516   5.28821 255 255 255
 0.813855 -0.790444   4.06239 255 255 255
0.288186 -1.07787  4.80611 255 255 255
  1.12419 -0.408372   4.23591 255 255 255
 1.01474 -0.52774  4.53241 255 255 255
 0.986878 -0.546755   4.05304 255 255 255
  1.07384 -0.449621   5.06977 255 255 255
  1.41782 -0.192281   4.60846 255 255 255
 0.625915 -0.990715   3.88833 255 255 255
0.0487174  -1.32814   4.32464 255 255 255
 0.796302 -0.775248   4.02909 255 255 255
-0.764557  -1.93419   3.50315 255 255 255
  1.33693 -0.252818   4.42674 255 255 255
 0.52973 -1.05327  4.11147 255 255 255
 0.651293 -0.989119   3.98275 255 255 255
 1.24353 -0.16818  3.90588 255 255 255
 0.785342 -0.872094   3.89111 255 255 255
-0.0858301   -1.49667    4.17789 255 255 255
  1.45077 -0.211555   4.66055 255 255 255
0.620555 -1.00957  3.83941 255 255 255
  1.11433 -0.385091   4.00667 255 255 255
 0.777081 -0.771819   4.23083 255 255 255
  1.20215 -0.311693     4.147 255 255 255
0.599528 -1.01185  4.15594 255 255 255
 0.923095 -0.641439   4.74605 255 255 255
 0.708335 -0.963676   3.88638 255 255 255
 0.977363 -0.564059    4.3574 255 255 255
 0.44828 -1.18621  3.75503 255 255 255
0.161565 -1.14219  4.87037 255 255 255
 0.879963 -0.557166   5.39064 255 255 255
  1.20509 -0.363398   4.90401 255 255 255
0.680756 -1.03256  3.69963 255 255 255
  1.17955 -0.408229   4.60726 255 255 255
  1.40309 -0.231126   4.62243 255 255 255
 0.970611 -0.512106   5.31187 255 255 255
 0.737046 -0.818317   4.21807 255 255 255
  1.15777 -0.398451   4.35355 255 255 255
  1.26443 -0.329017   5.04079 255 255 255
0.139559 -1.20167  4.59127 255 255 255
  1.36368 -0.282986    4.6568 255 255 255
  0.83512 -0.760045   4.19343 255 255 255
  1.34374 -0.293613   4.84616 255 255 255
 0.882858 -0.628844   4.98563 255 255 255
  1.14513 -0.441103    4.5632 255 255 255
  1.14062 -0.415704   4.71947 255 255 255
 0.866314 -0.627042   5.24324 255 255 255
 0.793178 -0.738547   3.82728 255 255 255
   1.47289 -0.0161035     4.2633 255 255 255
-0.164152  -1.52552    4.3112 255 255 255
 0.936491 -0.627044   4.08805 255 255 255
  0.43994 -0.849677   5.13329 255 255 255
  1.44619 -0.267875   5.02782 255 255 255
   1.3441 -0.274835   4.94411 255 255 255
    0.787 -0.791641   4.63269 255 255 255
  1.00704 -0.524855    5.2484 255 255 255
  1.02726 -0.499646   3.98475 255 255 255
0.117679 -1.21563  4.58964 255 255 255
 0.943927 -0.587804   4.32891 255 255 255
  1.17063 -0.358891   4.29738 255 255 255
  1.32847 -0.283685   4.92821 255 255 255
  1.42837 -0.149618   4.29998 255 255 255
  1.09934 -0.450382   4.77284 255 255 255
  1.18937 -0.322949   4.20032 255 255 255
  1.14158 -0.425565   4.75378 255 255 255
  1.41979 -0.188592   4.50775 255 255 255
 0.492125 -0.888091   5.14694 255 255 255
 0.617583 -0.976548   3.65686 255 255 255
-0.39781 -1.76317  3.89146 255 255 255
  1.26933 -0.176477   3.97736 255 255 255
 0.697495 -0.916324   4.41986 255 255 255
 0.666883 -0.863769   3.93278 255 255 255
0.384855 -1.24018  4.33906 255 255 255
  1.40187 -0.241944   4.82238 255 255 255
0.633358 -1.02734  3.88802 255 255 255
  1.36969 -0.266459   4.88061 255 255 255
 0.916859 -0.627459   4.91977 255 255 255
  1.10083 -0.439343   5.16945 255 255 255
-0.0472507   -1.21263    4.99128 255 255 255
