ply
format ascii 1.0
element vertex 1145
property float x
property float y
property float z
property uchar red
property uchar green
property uchar blue
end_header
-0.980737 -0.364795   1.80214 255 255 255
 -1.02145 -0.275528   1.78907 255 255 255
 -1.03892 -0.371793   1.78513 255 255 255
  -0.9693 -0.357142   1.80537 255 255 255
-0.938721 -0.389258   1.81429 255 255 255
-0.885306 -0.312144     1.849 255 255 255
-0.910374 -0.325752   1.83791 255 255 255
 -1.03725 -0.281715   1.78562 255 255 255
-0.946941 -0.254878   1.81735 255 255 255
-0.951327  -0.27197   1.82301 255 255 255
-0.929651 -0.457032   1.82345 255 255 255
 -1.04166 -0.281238   1.78428 255 255 255
 -1.02999 -0.336872   1.78768 255 255 255
-0.968629 -0.373492   1.80517 255 255 255
 -1.01231 -0.355617   1.79279 255 255 255
-0.981348 -0.263576   1.79983 255 255 255
-0.942793 -0.296193   1.81212 255 255 255
-0.917959  -0.28145   1.84146 255 255 255
-0.990817 -0.337064   1.79915 255 255 255
-0.929275 -0.361945   1.81642 255 255 255
-0.927879 -0.284082   1.84748 255 255 255
 -1.04344 -0.386238   1.78373 255 255 255
-0.942095 -0.274701   1.81088 255 255 255
 -1.02354 -0.269572   1.78864 255 255 255
-0.947991 -0.284595   1.80996 255 255 255
 -1.02396 -0.428752   1.78817 255 255 255
 -1.08046 -0.382087   1.77168 255 255 255
  -1.0529 -0.282807   1.78104 255 255 255
-0.932526 -0.286706   1.81484 255 255 255
  -1.0721 -0.363899   1.77544 255 255 255
-0.983683 -0.415064   1.80123 255 255 255
-0.935858 -0.271972   1.82836 255 255 255
-0.949673  -0.45869    1.8187 255 255 255
 -1.02878 -0.278363   1.78785 255 255 255
 -1.02943 -0.355798   1.77963 255 255 255
-0.981427 -0.318659   1.80371 255 255 255
-0.902027 -0.360663   1.83502 255 255 255
-0.956239 -0.364572   1.80905 255 255 255
-0.909815 -0.323849   1.83332 255 255 255
-0.892001 -0.380359   1.83633 255 255 255
-0.912488 -0.317358   1.82037 255 255 255
-0.894854 -0.306922   1.85512 255 255 255
-0.994051 -0.256512   1.79571 255 255 255
-0.888338 -0.314309   1.85148 255 255 255
-0.942012 -0.344889   1.81293 255 255 255
-0.992373 -0.266115   1.79695 255 255 255
-0.918213 -0.411188   1.83182 255 255 255
 -1.01269 -0.258023     1.788 255 255 255
 -1.02616 -0.274153   1.78723 255 255 255
 -1.01713 -0.388415   1.79128 255 255 255
 -1.02807 -0.380286   1.78815 255 255 255
 -1.01283 -0.273444   1.79207 255 255 255
 -1.06338 -0.294086   1.77833 255 255 255
-0.950553 -0.410005   1.81065 255 255 255
-0.915805 -0.242239   1.81426 255 255 255
 -0.94087 -0.281189   1.81117 255 255 255
-0.923016 -0.243276   1.81187 255 255 255
-0.995907 -0.255294   1.79519 255 255 255
 -1.09886 -0.359968   1.76743 255 255 255
 -1.03981 -0.272042   1.78738 255 255 255
-1.06884  -0.2791  1.77629 255 255 255
-1.01809 -0.37984  1.78211 255 255 255
-0.961391 -0.436619   1.79556 255 255 255
-0.937139 -0.287045   1.81194 255 255 255
-0.895709 -0.377636   1.83559 255 255 255
-1.09696 -0.37058  1.76775 255 255 255
 -1.06924 -0.390734   1.77589 255 255 255
 -1.02435 -0.287475   1.78907 255 255 255
 -1.01182 -0.390696   1.79194 255 255 255
-0.90979 -0.26299  1.81843 255 255 255
-0.987718 -0.346102   1.80058 255 255 255
 -1.05824 -0.275374   1.77931 255 255 255
-0.951219 -0.414366   1.81044 255 255 255
-0.986319 -0.257103   1.79788 255 255 255
-1.02157 -0.30706  1.78568 255 255 255
-0.951009 -0.357582   1.81222 255 255 255
 -1.08589 -0.299145   1.76683 255 255 255
  -1.0905 -0.307625   1.77044 255 255 255
-0.923958 -0.293061   1.84308 255 255 255
 -1.02843 -0.272842   1.78765 255 255 255
 -0.88829 -0.312781   1.85971 255 255 255
-0.927678 -0.396639   1.82127 255 255 255
-0.972797 -0.442899   1.80412 255 255 255
-0.974065 -0.257282   1.80075 255 255 255
 -1.11636 -0.404147   1.76017 255 255 255
  -1.0804 -0.285823   1.77373 255 255 255
-0.945583  -0.29722   1.81144 255 255 255
-0.861532 -0.273947   1.80887 255 255 255
 -1.08166 -0.333993   1.76707 255 255 255
 -1.08191 -0.279274   1.77249 255 255 255
 -1.09284 -0.296123   1.76959 255 255 255
 -1.07398 -0.360718   1.77475 255 255 255
 -1.03366 -0.336263   1.78704 255 255 255
-0.988663 -0.292313   1.80165 255 255 255
 -1.09662 -0.366144   1.76794 255 255 255
-0.990806 -0.269918   1.80185 255 255 255
-0.964175 -0.372485   1.81564 255 255 255
  -1.0882 -0.400113   1.76606 255 255 255
 -1.03164 -0.295882   1.78732 255 255 255
-0.965374 -0.446669   1.80596 255 255 255
 -1.08765 -0.297313   1.77137 255 255 255
 -1.04277 -0.373937   1.77831 255 255 255
-0.932627 -0.379695   1.81573 255 255 255
-0.971238 -0.283326   1.80356 255 255 255
-0.963189 -0.399673   1.79879 255 255 255
 -1.04275 -0.385615   1.77655 255 255 255
-0.985374 -0.267938   1.80255 255 255 255
-0.936182 -0.267636   1.81117 255 255 255
 -1.01336 -0.268473   1.79192 255 255 255
-0.974992 -0.367868   1.80359 255 255 255
 -1.04215 -0.321061   1.78431 255 255 255
 -1.03424 -0.471244    1.7773 255 255 255
-0.991696 -0.469885   1.79715 255 255 255
 -1.06297 -0.345457   1.77836 255 255 255
-0.884029 -0.246626    1.8271 255 255 255
  -1.0768 -0.454756    1.7699 255 255 255
 -1.04282 -0.433258   1.78323 255 255 255
-0.942561 -0.285132   1.82277 255 255 255
 -1.03684 -0.466638   1.78321 255 255 255
 -1.07667 -0.415586   1.76931 255 255 255
 -1.05316 -0.361765   1.78141 255 255 255
 -0.91601 -0.256963   1.80071 255 255 255
 -1.00377 -0.322813   1.79562 255 255 255
-0.950795 -0.387027    1.8215 255 255 255
  -1.0951 -0.294878   1.76524 255 255 255
 -1.03864 -0.464524   1.78302 255 255 255
-0.940679 -0.268445   1.81012 255 255 255
 -1.00791 -0.351654   1.79245 255 255 255
-0.996897 -0.420806   1.78701 255 255 255
-1.11344 -0.39786  1.76171 255 255 255
-0.970877 -0.315296   1.80468 255 255 255
 -1.06521 -0.350145   1.77752 255 255 255
 -1.08822 -0.378525   1.77013 255 255 255
 -0.99058 -0.361996   1.79897 255 255 255
-0.945428 -0.389857   1.81182 255 255 255
-0.978472  -0.30362   1.80541 255 255 255
-0.972225 -0.312047   1.80369 255 255 255
-0.952735 -0.267763   1.82525 255 255 255
 -1.03706 -0.296178   1.78583 255 255 255
-0.997786 -0.287954   1.79647 255 255 255
-0.991267 -0.261566   1.79687 255 255 255
 -1.02551 -0.442583    1.7796 255 255 255
 -1.03041 -0.363867   1.78739 255 255 255
 -1.01681 -0.274136   1.79289 255 255 255
-0.928858 -0.356402    1.8324 255 255 255
 -1.00681 -0.257187   1.79227 255 255 255
-0.934654 -0.281802    1.8137 255 255 255
   -1.093 -0.287295   1.77071 255 255 255
 -1.07783 -0.273081   1.77461 255 255 255
 -1.03394 -0.244171   1.78349 255 255 255
-0.923434 -0.238177   1.81215 255 255 255
-0.910305 -0.285766   1.82017 255 255 255
 -1.00108 -0.278392   1.79547 255 255 255
 -1.10483 -0.288618   1.75897 255 255 255
 -1.09001 -0.260557    1.7607 255 255 255
-0.907249 -0.321804   1.84263 255 255 255
 -1.04553 -0.284243   1.78353 255 255 255
-0.880459 -0.303535   1.84216 255 255 255
-0.975566 -0.266131   1.80079 255 255 255
 -1.04955 -0.350229    1.7822 255 255 255
 -1.02121 -0.328246   1.79073 255 255 255
-0.900434 -0.276034   1.82136 255 255 255
-0.960236  -0.22812   1.80191 255 255 255
 -1.02099 -0.307168   1.79066 255 255 255
 -1.07938 -0.302936   1.77394 255 255 255
  -1.0495 -0.390465   1.77715 255 255 255
-0.935788 -0.260809    1.8111 255 255 255
 -1.11357 -0.287533   1.76365 255 255 255
-0.947188 -0.279267   1.81025 255 255 255
 -1.00389 -0.303575   1.79241 255 255 255
-0.917946 -0.287504   1.80863 255 255 255
-0.965114 -0.305369   1.80601 255 255 255
-0.993621 -0.242912   1.78035 255 255 255
 -1.10544 -0.272539   1.76107 255 255 255
-0.959169  -0.37412   1.80826 255 255 255
 -1.04332 -0.292369   1.78698 255 255 255
-0.967728 -0.373577   1.79741 255 255 255
-0.961801 -0.284294   1.81921 255 255 255
  -1.1195 -0.296814   1.75794 255 255 255
-0.944851  -0.38239   1.81579 255 255 255
 -1.11284 -0.283087   1.76376 255 255 255
 -1.07768 -0.230424   1.76489 255 255 255
 -1.10875 -0.275996    1.7636 255 255 255
 -1.06092 -0.361868   1.77834 255 255 255
 -1.03165 -0.462977   1.77902 255 255 255
 -1.05236 -0.386529   1.78077 255 255 255
 -1.05217 -0.272859    1.7808 255 255 255
 -1.11364 -0.290808   1.76337 255 255 255
 -1.05257 -0.291539   1.78128 255 255 255
  -1.1125 -0.397916   1.76132 255 255 255
-0.878771 -0.251551   1.80622 255 255 255
-0.952829 -0.299189   1.80887 255 255 255
 -1.05648 -0.349054   1.78012 255 255 255
 -1.06748 -0.379327   1.77653 255 255 255
 -1.11001 -0.264134   1.76416 255 255 255
-1.08117 -0.30282  1.77326 255 255 255
 -1.11679 -0.284954   1.76277 255 255 255
-0.957531 -0.231823   1.80314 255 255 255
-0.961993 -0.290873   1.80705 255 255 255
-0.881331 -0.327349   1.85642 255 255 255
  -1.0307 -0.242426   1.77473 255 255 255
 -1.04893 -0.445311   1.77376 255 255 255
 -1.00132 -0.444807   1.79524 255 255 255
 -1.09861 -0.275303   1.76807 255 255 255
 -1.12106 -0.278008   1.76141 255 255 255
 -1.02602 -0.362839   1.78836 255 255 255
 -1.08588 -0.414108   1.76995 255 255 255
-0.935829 -0.394439   1.81459 255 255 255
-1.01936   -0.311  1.79067 255 255 255
-0.964252 -0.412419   1.80657 255 255 255
-0.929003 -0.301462   1.81576 255 255 255
  -1.0114 -0.444825   1.79215 255 255 255
 -1.03105 -0.272423   1.78705 255 255 255
-0.968699 -0.285096   1.80386 255 255 255
-0.990564 -0.335358   1.80721 255 255 255
-0.945971  -0.41918   1.81533 255 255 255
 -1.00884 -0.271438   1.79356 255 255 255
 -1.09362 -0.307126   1.76979 255 255 255
-0.982631  -0.28133   1.80033 255 255 255
 -1.03505 -0.267416   1.78524 255 255 255
 -1.06267 -0.359164   1.77866 255 255 255
-0.967381 -0.270821   1.81115 255 255 255
 -1.07858 -0.277311   1.77413 255 255 255
-0.997532 -0.262836   1.79665 255 255 255
-0.873796 -0.291461   1.83989 255 255 255
 -1.02339 -0.266696   1.78175 255 255 255
 -1.05299 -0.350123   1.78113 255 255 255
-0.941818 -0.363394   1.81099 255 255 255
 -1.06592 -0.376496   1.77652 255 255 255
-0.969616 -0.327567   1.80543 255 255 255
-0.979982 -0.254119   1.79229 255 255 255
 -1.07684 -0.375454   1.76824 255 255 255
-1.12201 -0.28829  1.76107 255 255 255
 -1.07039 -0.394156   1.77497 255 255 255
-0.994649 -0.363477   1.79837 255 255 255
 -1.04803 -0.252745   1.78063 255 255 255
-0.940133 -0.303899   1.81328 255 255 255
 -1.09176 -0.213914   1.76502 255 255 255
 -1.02431 -0.279765   1.78931 255 255 255
-0.913107 -0.289631   1.84278 255 255 255
 -1.11303 -0.263725   1.76335 255 255 255
 -1.13173 -0.328835   1.75066 255 255 255
-1.10765 -0.28332  1.76173 255 255 255
 -1.0845 -0.44705  1.77004 255 255 255
 -1.00935 -0.371827   1.79348 255 255 255
 -1.01903 -0.391218   1.79099 255 255 255
 -1.07564 -0.254618   1.76316 255 255 255
 -1.02362 -0.392689   1.78976 255 255 255
 -1.10629 -0.274201   1.76519 255 255 255
 -0.97404 -0.475805   1.80518 255 255 255
-0.906843 -0.262225   1.81844 255 255 255
-0.962731 -0.380123   1.80706 255 255 255
-0.934326 -0.268593   1.81197 255 255 255
-0.906707 -0.282281   1.82456 255 255 255
 -1.02909 -0.281144   1.78719 255 255 255
 -1.10497 -0.298536   1.76663 255 255 255
-0.978736  -0.29676   1.80185 255 255 255
  -1.0412 -0.456376   1.77892 255 255 255
 -1.00181 -0.273376   1.79499 255 255 255
-0.953655 -0.353039   1.81038 255 255 255
 -1.04908 -0.327241    1.7821 255 255 255
 -1.06051 -0.344944   1.77942 255 255 255
-0.982022 -0.343456   1.80149 255 255 255
-0.894168 -0.274491    1.8555 255 255 255
-0.928534 -0.318306   1.82504 255 255 255
 -1.11421 -0.273138    1.7636 255 255 255
 -1.08613 -0.298264   1.77179 255 255 255
-0.972959 -0.407864   1.80348 255 255 255
-0.963271 -0.433425   1.80653 255 255 255
-1.09186 -0.25925  1.77205 255 255 255
 -1.15785 -0.365606   1.73409 255 255 255
 -1.01206 -0.334098   1.79271 255 255 255
-0.898089 -0.338412   1.84491 255 255 255
 -1.00998 -0.366103   1.79368 255 255 255
 -1.01301 -0.317329   1.79733 255 255 255
 -1.07131 -0.277596   1.77968 255 255 255
 -1.03299 -0.367159   1.78673 255 255 255
-0.931477 -0.337637   1.81611 255 255 255
 -1.07811 -0.384575   1.77302 255 255 255
-0.931977 -0.250053   1.79959 255 255 255
-0.956422  -0.35414   1.80838 255 255 255
 -0.97639 -0.250922   1.80007 255 255 255
 -1.01142 -0.339634   1.79302 255 255 255
-0.977083 -0.314594   1.80294 255 255 255
 -1.02122 -0.317734   1.79053 255 255 255
 -1.05787 -0.261946    1.7749 255 255 255
-1.10273 -0.34123  1.76624 255 255 255
  -1.0314 -0.298805   1.78403 255 255 255
 -1.11075 -0.271662   1.76403 255 255 255
 -1.06498 -0.291256   1.77798 255 255 255
 -1.11937 -0.405732   1.75916 255 255 255
-1.14424  -0.3205  1.75394 255 255 255
-1.03695 -0.30258  1.78593 255 255 255
 -1.08178 -0.275848   1.77312 255 255 255
  -1.0192 -0.305279   1.79127 255 255 255
 -1.02969 -0.290488   1.78586 255 255 255
 -1.07489 -0.251775   1.77328 255 255 255
 -1.07443 -0.449072   1.76597 255 255 255
 -1.03565 -0.272679   1.78584 255 255 255
-0.999477 -0.286294   1.79615 255 255 255
   -1.057 -0.369601   1.77429 255 255 255
-0.932221  -0.39158   1.81902 255 255 255
 -1.06702 -0.296849   1.77712 255 255 255
 -1.11357 -0.259299    1.7591 255 255 255
-1.01573 -0.33465  1.79221 255 255 255
-0.946536 -0.409047   1.81238 255 255 255
-0.916444 -0.315121   1.84014 255 255 255
  -0.9343 -0.288107   1.81417 255 255 255
-0.934539 -0.406215   1.82238 255 255 255
 -1.07439 -0.237368   1.76663 255 255 255
-0.970447 -0.325465   1.81101 255 255 255
-0.952068 -0.362233    1.8193 255 255 255
 -1.04914 -0.346572   1.78334 255 255 255
 -1.10234 -0.276955   1.76708 255 255 255
-0.926712  -0.27574    1.8144 255 255 255
 -1.16167 -0.381354   1.72737 255 255 255
-0.924823 -0.277369   1.81549 255 255 255
 -1.07102 -0.272378   1.77625 255 255 255
-0.880502 -0.336392   1.85468 255 255 255
 -1.04173 -0.422714   1.78276 255 255 255
  -1.1458 -0.320301   1.75011 255 255 255
 -1.09464 -0.341838   1.76897 255 255 255
 -1.06707 -0.323291   1.77712 255 255 255
-0.947909 -0.276666    1.8279 255 255 255
 -1.10688 -0.298095   1.76568 255 255 255
-0.966307 -0.420669    1.8097 255 255 255
 -1.13476 -0.282585   1.75328 255 255 255
 -1.09864 -0.288642   1.76796 255 255 255
-0.937192 -0.218092   1.78849 255 255 255
 -1.07281 -0.316589   1.76803 255 255 255
 -1.01854 -0.474688   1.77934 255 255 255
-0.940765 -0.390957   1.81397 255 255 255
 -1.08694 -0.286413    1.7715 255 255 255
 -1.12086 -0.395327   1.75914 255 255 255
 -1.10079 -0.268501   1.76716 255 255 255
 -1.11878 -0.332688   1.76166 255 255 255
 -1.14915 -0.350141   1.75143 255 255 255
 -1.04659 -0.310403   1.78574 255 255 255
-0.992663 -0.424843   1.79786 255 255 255
 -1.06205 -0.296844   1.77853 255 255 255
 -1.01405 -0.228452   1.78762 255 255 255
 -1.11481 -0.355959   1.76091 255 255 255
 -1.01344 -0.470137   1.79078 255 255 255
 -1.15153 -0.328133   1.75362 255 255 255
 -1.1166 -0.28364  1.75893 255 255 255
-1.06419 -0.32233  1.77818 255 255 255
-0.994785 -0.339221   1.79871 255 255 255
 -1.15052 -0.288406   1.76098 255 255 255
-1.0802 -0.3297 1.77334 255 255 255
 -1.0356 -0.33406  1.78631 255 255 255
-0.970311 -0.477498   1.80674 255 255 255
-1.03367 -0.37527  1.78671 255 255 255
 -1.0511 -0.22827  1.77002 255 255 255
 -1.05709 -0.345854   1.77729 255 255 255
-0.996175 -0.370545   1.79749 255 255 255
 -1.05855 -0.279806   1.77932 255 255 255
 -1.17823 -0.390809   1.74076 255 255 255
 -1.0153 -0.26533  1.79026 255 255 255
-0.921757 -0.275586   1.80466 255 255 255
-0.938565 -0.280144   1.81224 255 255 255
 -1.10101 -0.290229   1.76766 255 255 255
-0.994257 -0.233053   1.79357 255 255 255
-0.972238 -0.224335    1.7984 255 255 255
-0.899027 -0.286637   1.85546 255 255 255
 -1.07496 -0.358549   1.77511 255 255 255
 -1.03727 -0.350022   1.79431 255 255 255
 -1.10019 -0.362846   1.76672 255 255 255
 -1.01192 -0.362916   1.79304 255 255 255
-0.870685 -0.293201   1.81595 255 255 255
 -1.11003 -0.432921    1.7629 255 255 255
 -1.01714 -0.273803   1.78894 255 255 255
 -1.13394 -0.332304   1.75675 255 255 255
-0.948854 -0.375755    1.8113 255 255 255
 -1.16784 -0.377618    1.7227 255 255 255
-0.952467 -0.429334   1.81007 255 255 255
-0.899547 -0.238091   1.81775 255 255 255
  -1.1056 -0.235786   1.76143 255 255 255
-0.936605 -0.383027   1.81438 255 255 255
 -1.09397 -0.290005   1.76462 255 255 255
 -1.00779 -0.299378   1.79898 255 255 255
-0.992616 -0.380678   1.79832 255 255 255
 -1.09553 -0.272939   1.76896 255 255 255
 -1.07622 -0.311904   1.77033 255 255 255
 -1.03251 -0.230338   1.77137 255 255 255
-0.996313 -0.205947   1.78926 255 255 255
-0.959594 -0.288785   1.80703 255 255 255
 -1.01037 -0.467178   1.79119 255 255 255
 -1.11423 -0.384146   1.76164 255 255 255
  -1.1682 -0.370969   1.72409 255 255 255
-0.91462 -0.34595  1.82063 255 255 255
-1.04923 -0.23093  1.76801 255 255 255
-0.984674    -0.363   1.79762 255 255 255
 -1.05487 -0.281843   1.76873 255 255 255
 -1.03142 -0.308485   1.78764 255 255 255
 -1.05759 -0.267222   1.77943 255 255 255
-1.00176 -0.26617  1.78913 255 255 255
 -1.03497 -0.379568   1.78919 255 255 255
 -1.04844 -0.280429   1.78248 255 255 255
 -1.10146 -0.256169   1.76625 255 255 255
 -1.08488 -0.329792   1.77251 255 255 255
 -1.09812 -0.264733   1.76776 255 255 255
-0.931839 -0.280581   1.81397 255 255 255
 -1.09382 -0.285334   1.76961 255 255 255
-1.00464 -0.44066   1.7945 255 255 255
 -1.11128 -0.389407    1.7621 255 255 255
 -1.04485 -0.220041   1.76414 255 255 255
-0.966217 -0.491937   1.80315 255 255 255
 -1.04171 -0.385221   1.78369 255 255 255
-0.982417 -0.199534   1.77753 255 255 255
 -1.01727 -0.245215   1.77423 255 255 255
 -1.02369 -0.384956   1.78967 255 255 255
-1.11849 -0.23801  1.75749 255 255 255
 -1.06369 -0.234844   1.76725 255 255 255
 -1.08973 -0.285247   1.77049 255 255 255
 -1.12468 -0.351838   1.75956 255 255 255
 -1.02347 -0.285396   1.78963 255 255 255
 -1.14117 -0.318225    1.7549 255 255 255
 -1.07132 -0.325723   1.77582 255 255 255
 -0.99371 -0.275837   1.79736 255 255 255
-0.933097 -0.261354   1.80417 255 255 255
-1.00343 -0.20156  1.76231 255 255 255
-0.947562 -0.258767   1.80816 255 255 255
 -1.02569 -0.195539   1.75836 255 255 255
-0.935109 -0.435523   1.82223 255 255 255
-0.994332 -0.279591   1.79769 255 255 255
 -1.04453 -0.219518   1.76981 255 255 255
 -1.04073 -0.366806   1.78254 255 255 255
 -1.00057 -0.390811   1.78772 255 255 255
-0.944645 -0.433411   1.81251 255 255 255
 -1.05275 -0.216411   1.76231 255 255 255
-0.896086  -0.27519   1.80787 255 255 255
-0.953443 -0.424176   1.81005 255 255 255
-0.959679 -0.431835   1.79312 255 255 255
 -1.08262 -0.427824   1.76725 255 255 255
 -0.95645 -0.289483   1.80757 255 255 255
-0.901376  -0.37617   1.83401 255 255 255
-0.931586 -0.206964   1.80583 255 255 255
 -1.07325 -0.211804   1.75728 255 255 255
 -1.18106 -0.360814   1.74002 255 255 255
 -1.06609 -0.276888   1.77714 255 255 255
 -1.15549 -0.341866   1.74977 255 255 255
  -1.1455 -0.300899   1.75205 255 255 255
-0.965313 -0.281531   1.80927 255 255 255
 -1.07166 -0.285581   1.77622 255 255 255
 -1.08751 -0.297987    1.7658 255 255 255
-1.10078 -0.32567  1.76022 255 255 255
 -1.04965 -0.320152   1.78269 255 255 255
 -1.00674 -0.478527   1.78826 255 255 255
-0.948934 -0.437682   1.81574 255 255 255
 -1.03399 -0.365263   1.78631 255 255 255
 -1.09673 -0.339099   1.76865 255 255 255
-0.994515 -0.259311   1.79659 255 255 255
 -1.01625 -0.358134   1.79267 255 255 255
-0.991354 -0.286674   1.79839 255 255 255
  -1.1383 -0.399482   1.73307 255 255 255
 -1.08303 -0.294448   1.77287 255 255 255
 -1.07306 -0.298301    1.7661 255 255 255
 -1.04679 -0.288515   1.78283 255 255 255
-0.932339   -0.4103   1.82178 255 255 255
-0.98039 -0.30274  1.80339 255 255 255
-0.978998 -0.226105   1.79674 255 255 255
-0.884611 -0.307834   1.85856 255 255 255
 -1.0226 -0.47265  1.77809 255 255 255
 -1.01379 -0.460682   1.78688 255 255 255
-0.967417  -0.19532   1.76869 255 255 255
-0.946729 -0.260466   1.80819 255 255 255
 -1.00442 -0.353683   1.79148 255 255 255
-0.969737 -0.263294   1.80281 255 255 255
-0.982236 -0.247024   1.80042 255 255 255
 -1.12406 -0.280496   1.76047 255 255 255
-0.896257 -0.271956   1.82167 255 255 255
-0.935378 -0.506374   1.81028 255 255 255
 -1.04157 -0.379811   1.77714 255 255 255
 -1.00204 -0.258382   1.79395 255 255 255
 -1.01896 -0.370727   1.78263 255 255 255
-0.994508 -0.300307   1.80182 255 255 255
-0.943645 -0.368457   1.81257 255 255 255
-0.943095 -0.236367   1.80716 255 255 255
 -1.06064 -0.211997   1.77342 255 255 255
 -1.17328 -0.373708    1.7269 255 255 255
-0.996864 -0.285357    1.7968 255 255 255
   -1.102 -0.272177    1.7669 255 255 255
 -1.12976 -0.278403   1.75935 255 255 255
 -1.06449 -0.301792     1.772 255 255 255
-0.985133 -0.283963   1.79988 255 255 255
-0.996101 -0.303943   1.79733 255 255 255
-1.01025 -0.27054   1.7926 255 255 255
 -1.05324 -0.212154   1.76264 255 255 255
 -1.00631 -0.328765   1.79496 255 255 255
-0.960678 -0.483907   1.80344 255 255 255
 -1.17242 -0.384502   1.71927 255 255 255
 -1.02403 -0.282534    1.7896 255 255 255
 -1.0831 -0.31289  1.77297 255 255 255
-0.966691 -0.326351   1.80579 255 255 255
-0.922655 -0.378696   1.81883 255 255 255
 -1.02721 -0.317601   1.79596 255 255 255
 -0.97491 -0.284579   1.80178 255 255 255
-0.944199 -0.190363   1.77157 255 255 255
-0.987438 -0.261159   1.79807 255 255 255
   -1.072 -0.212782    1.7586 255 255 255
-1.05187 -0.36447  1.78123 255 255 255
 -1.01321 -0.278966   1.79494 255 255 255
 -1.02503 -0.330711   1.78999 255 255 255
-0.926261 -0.363038    1.8177 255 255 255
-1.03473 -0.28254  1.78592 255 255 255
 -1.16783 -0.330758    1.7466 255 255 255
-0.996206 -0.280554   1.79691 255 255 255
 -1.04324 -0.494855   1.75738 255 255 255
 -1.01534 -0.447682   1.79025 255 255 255
 -1.18292 -0.358746   1.74048 255 255 255
-0.945889 -0.287782   1.81085 255 255 255
-1.18168  -0.3804  1.73985 255 255 255
 -1.09653 -0.227594   1.75933 255 255 255
   -1.003 -0.331712    1.7961 255 255 255
 -1.04257 -0.302677   1.79085 255 255 255
 -1.04707 -0.234849   1.77009 255 255 255
 -1.03516 -0.399111   1.78578 255 255 255
 -1.17643 -0.363409   1.72523 255 255 255
 -1.01755 -0.381376   1.79138 255 255 255
 -1.00052 -0.378855   1.79686 255 255 255
 -1.09605 -0.276311   1.76906 255 255 255
-0.969011 -0.232326   1.79993 255 255 255
-1.08551 -0.25019  1.76571 255 255 255
 -1.05287 -0.298583   1.78497 255 255 255
 -1.08492 -0.455458   1.76844 255 255 255
 -1.09667 -0.307801   1.76267 255 255 255
-0.933356 -0.430501   1.82312 255 255 255
 -1.09214 -0.262057    1.7695 255 255 255
-0.931408 -0.258218    1.8122 255 255 255
 -1.02217 -0.332453   1.78982 255 255 255
-0.968427 -0.218136   1.79859 255 255 255
 -1.06981 -0.359415   1.77575 255 255 255
-0.966915 -0.419468   1.80523 255 255 255
   -1.101 -0.224977    1.7584 255 255 255
 -1.11401 -0.406317   1.76131 255 255 255
 -1.08514 -0.394088   1.77014 255 255 255
 -1.09641 -0.278006   1.76013 255 255 255
 -1.12915 -0.320806   1.76073 255 255 255
 -0.90033 -0.321169   1.84852 255 255 255
 -1.18433 -0.287183   1.74774 255 255 255
-1.09792 -0.31083  1.76362 255 255 255
 -1.09792 -0.262136   1.76764 255 255 255
-0.970583 -0.361843   1.80479 255 255 255
 -1.03127 -0.300698   1.78717 255 255 255
 -1.01903 -0.436198   1.77798 255 255 255
 -1.06802 -0.294439   1.76843 255 255 255
-0.885349 -0.280794   1.82053 255 255 255
 -1.16057 -0.270586   1.74927 255 255 255
 -1.06791 -0.274547   1.77098 255 255 255
 -1.09395 -0.346749   1.76917 255 255 255
 -1.15533 -0.346084   1.74956 255 255 255
-0.920578  -0.27563   1.81571 255 255 255
 -1.13544 -0.365899   1.75519 255 255 255
 -1.05948 -0.476526   1.77573 255 255 255
 -1.05875 -0.334614   1.77962 255 255 255
-0.941313 -0.471627   1.81006 255 255 255
 -1.18435 -0.384911   1.73906 255 255 255
-0.982709  -0.26242   1.79274 255 255 255
 -1.09725 -0.267729   1.76822 255 255 255
 -1.11881 -0.369582   1.75917 255 255 255
 -1.03355 -0.304484   1.78675 255 255 255
  -1.0887 -0.274395   1.77108 255 255 255
 -1.02565 -0.423492   1.78871 255 255 255
 -1.15704 -0.280545   1.75101 255 255 255
 -1.15485 -0.288471   1.75665 255 255 255
 -0.92093 -0.400665   1.82772 255 255 255
 -1.11414 -0.300109   1.76308 255 255 255
-0.981301 -0.404117   1.80151 255 255 255
 -1.16934 -0.281988   1.74701 255 255 255
-1.05375  -0.2896  1.78121 255 255 255
-0.940317 -0.436137    1.8203 255 255 255
-0.953158 -0.260342   1.80653 255 255 255
-0.857902 -0.273459   1.81243 255 255 255
-1.04779 -0.39908  1.77794 255 255 255
-0.979379 -0.367307   1.79596 255 255 255
 -1.18302 -0.346146   1.74071 255 255 255
  -1.1618 -0.308389   1.74884 255 255 255
  -1.1272 -0.281899   1.75595 255 255 255
 -1.17277 -0.305779    1.7455 255 255 255
 -1.12591 -0.253075    1.7586 255 255 255
-1.11099 -0.27516  1.75895 255 255 255
 -1.17784 -0.349502    1.7296 255 255 255
-1.10287 -0.23919  1.76254 255 255 255
 -1.17614 -0.310716   1.74417 255 255 255
 -1.17282 -0.266349   1.74493 255 255 255
  -1.1669 -0.292183   1.74779 255 255 255
-0.962249  -0.25552   1.80344 255 255 255
-0.955839 -0.255161   1.80561 255 255 255
-1.08854 -0.33342  1.77098 255 255 255
-0.981856 -0.209761   1.77077 255 255 255
 -1.17168 -0.282588     1.746 255 255 255
 -1.07549 -0.328153   1.77263 255 255 255
 -1.16297 -0.282187   1.74906 255 255 255
 -1.18143 -0.306314   1.74268 255 255 255
 -1.17882 -0.296653   1.74365 255 255 255
 -1.03508 -0.461011   1.77351 255 255 255
 -1.07245 -0.239764   1.76721 255 255 255
 -1.15819 -0.300163   1.75052 255 255 255
 -1.14859 -0.276579   1.75325 255 255 255
  -1.1375 -0.275466   1.75645 255 255 255
 -1.00576 -0.341593   1.79603 255 255 255
 -1.03413 -0.285502   1.78626 255 255 255
 -1.04336 -0.326567   1.78425 255 255 255
 -1.16658 -0.387904   1.72206 255 255 255
 -1.06131 -0.334572   1.77869 255 255 255
-1.00877 -0.33835  1.79428 255 255 255
  -1.0253 -0.288555   1.78589 255 255 255
-0.932311 -0.272746   1.81326 255 255 255
-1.01056 -0.24778  1.79045 255 255 255
 -1.01157 -0.475921   1.78697 255 255 255
-0.978467 -0.214446   1.79566 255 255 255
-0.897811 -0.290265   1.85149 255 255 255
-0.891216 -0.277873   1.82438 255 255 255
-0.966249 -0.417882   1.80983 255 255 255
 -1.08266 -0.269215   1.77239 255 255 255
-1.08021 -0.28036  1.77326 255 255 255
 -1.02559 -0.365067   1.78879 255 255 255
-0.933609 -0.243257   1.79651 255 255 255
-0.926877 -0.322917   1.81712 255 255 255
 -1.12039 -0.288923   1.76182 255 255 255
-0.947993 -0.364116    1.8126 255 255 255
 -1.02543 -0.393573   1.78856 255 255 255
 -1.08249 -0.312532   1.76617 255 255 255
 -1.07687 -0.260015   1.77316 255 255 255
-0.979961 -0.215542   1.79513 255 255 255
 -1.02056 -0.322874   1.79072 255 255 255
-1.02539 -0.31315   1.7895 255 255 255
  -1.0976 -0.326881   1.76441 255 255 255
 -1.09945 -0.294676   1.76823 255 255 255
-1.14328 -0.27773  1.75501 255 255 255
 -1.07126 -0.451643    1.7526 255 255 255
 -1.18213 -0.316756   1.73534 255 255 255
 -1.03563 -0.275597   1.78557 255 255 255
-1.1539 -0.2968 1.74914 255 255 255
  -1.1416 -0.305534   1.75534 255 255 255
 -1.13629 -0.277491   1.75729 255 255 255
 -1.15066 -0.279982   1.75272 255 255 255
 -1.05262 -0.278572   1.77511 255 255 255
 -1.17957 -0.281287   1.74379 255 255 255
-0.885186 -0.235377   1.81978 255 255 255
 -1.18757 -0.289551    1.7458 255 255 255
 -1.15537 -0.284294   1.75059 255 255 255
-0.913753 -0.328324   1.82902 255 255 255
 -1.06928 -0.326592    1.7768 255 255 255
-0.905575 -0.244881   1.81744 255 255 255
 -1.16641 -0.271346   1.74735 255 255 255
 -1.08599 -0.481305   1.76808 255 255 255
-0.977017 -0.269608   1.80155 255 255 255
 -1.08954 -0.302894   1.77083 255 255 255
-0.981613 -0.257421    1.7962 255 255 255
-0.930655 -0.351909     1.829 255 255 255
-0.919314 -0.214677   1.80979 255 255 255
-0.903889 -0.236989   1.81583 255 255 255
  -1.1821 -0.310751   1.74196 255 255 255
 -1.09867 -0.219488   1.75747 255 255 255
 -1.12016 -0.271282   1.76147 255 255 255
    -1.04 -0.443843   1.77378 255 255 255
  -0.9547 -0.255568   1.80637 255 255 255
 -1.04221 -0.343751   1.77912 255 255 255
-0.875395   -0.2298   1.82114 255 255 255
 -1.04048 -0.451989   1.77998 255 255 255
-0.878535 -0.239221   1.79855 255 255 255
 -1.12981 -0.366358   1.75715 255 255 255
 -1.03178 -0.493102   1.76802 255 255 255
-0.867698 -0.223713   1.82206 255 255 255
 -1.02972 -0.306512   1.78804 255 255 255
 -1.07934 -0.447462   1.77044 255 255 255
-0.930563 -0.410443   1.82397 255 255 255
 -1.12269 -0.294336   1.75751 255 255 255
-0.910288 -0.212883   1.81115 255 255 255
 -1.04816 -0.279819   1.77773 255 255 255
-0.866427 -0.218824   1.79375 255 255 255
-0.857272 -0.228244   1.81128 255 255 255
 -1.10569 -0.363664   1.76482 255 255 255
-0.993359 -0.480207   1.79534 255 255 255
  -1.0436 -0.300661   1.77835 255 255 255
-0.963143 -0.373189   1.80677 255 255 255
-1.09958 -0.45578  1.76836 255 255 255
 -1.12097 -0.243887   1.76037 255 255 255
 -1.02886 -0.362048   1.78799 255 255 255
-0.949885 -0.192262    1.7713 255 255 255
 -1.11522 -0.388943   1.74825 255 255 255
 -1.02322 -0.324889   1.78629 255 255 255
 -1.16811 -0.304287   1.74648 255 255 255
   -1.007 -0.345705   1.79453 255 255 255
 -1.18685 -0.307331   1.73581 255 255 255
 -1.10462 -0.266857   1.75958 255 255 255
 -1.06378 -0.238164   1.77012 255 255 255
-0.989887 -0.406383   1.80093 255 255 255
 -1.06662 -0.304928   1.77766 255 255 255
-0.854154 -0.223369   1.79856 255 255 255
 -1.04032 -0.304692   1.78509 255 255 255
 -0.95176 -0.367938   1.81113 255 255 255
 -1.06759 -0.285804   1.77703 255 255 255
 -1.04492 -0.306293   1.77598 255 255 255
-0.934346 -0.348422   1.81498 255 255 255
 -1.09431 -0.332845   1.76282 255 255 255
-0.859954 -0.302005   1.81993 255 255 255
  -1.1874 -0.283672   1.74121 255 255 255
-0.944534 -0.376715   1.81246 255 255 255
-0.87905  -0.2506   1.8233 255 255 255
-0.998929 -0.502529   1.78195 255 255 255
 -1.12296 -0.307381   1.76107 255 255 255
 -1.10347 -0.274382   1.76505 255 255 255
-0.975723 -0.415958   1.79837 255 255 255
 -1.11716 -0.399725   1.76066 255 255 255
  -1.0957 -0.470605   1.73555 255 255 255
  -1.0133 -0.450502   1.77935 255 255 255
 -1.03835 -0.283635   1.78502 255 255 255
 -1.08898 -0.354319   1.77029 255 255 255
 -1.06453 -0.286603   1.77813 255 255 255
-0.985768  -0.47502   1.80551 255 255 255
-0.996851 -0.367602    1.7972 255 255 255
 -1.07985 -0.423512   1.76793 255 255 255
  -1.0359 -0.379138   1.78612 255 255 255
 -1.04401 -0.273342   1.78323 255 255 255
  -1.0682 -0.203034   1.77027 255 255 255
 -1.13793 -0.313904   1.75559 255 255 255
 -1.04531 -0.276703   1.78342 255 255 255
 -1.08713 -0.274007   1.77524 255 255 255
 -1.01623 -0.328149   1.79199 255 255 255
-0.907832 -0.271766   1.81888 255 255 255
-0.991818 -0.207929   1.79105 255 255 255
 -1.05325 -0.200075   1.75598 255 255 255
-0.942088 -0.265956   1.80998 255 255 255
  -1.0746 -0.345691   1.77075 255 255 255
 -1.18601 -0.292555   1.74154 255 255 255
 -1.16532 -0.280364   1.74804 255 255 255
 -1.06683 -0.288563   1.77432 255 255 255
 -1.02779 -0.359205   1.78851 255 255 255
 -1.06694 -0.387081   1.76875 255 255 255
 -1.18655 -0.301382   1.74756 255 255 255
 -1.03959 -0.393441   1.78032 255 255 255
-1.13325   -0.284  1.75569 255 255 255
-0.954033 -0.436283   1.81597 255 255 255
-0.962864 -0.369337    1.8073 255 255 255
 -1.11029 -0.319865   1.76658 255 255 255
 -1.02982 -0.396289   1.78756 255 255 255
-0.906207 -0.204458   1.78603 255 255 255
 -1.05012 -0.211929   1.77604 255 255 255
-0.922857 -0.312148   1.81372 255 255 255
-1.07321 -0.21081  1.75081 255 255 255
 -1.01565 -0.290952   1.79189 255 255 255
-0.937117 -0.318125   1.80982 255 255 255
 -1.00743 -0.302043   1.79359 255 255 255
-0.974515 -0.389074   1.80949 255 255 255
-1.12256 -0.29271  1.75955 255 255 255
 -1.13264 -0.378012   1.74287 255 255 255
-0.926501 -0.244632   1.81174 255 255 255
-1.00715 -0.26065  1.78922 255 255 255
-0.942239 -0.445395   1.81355 255 255 255
 -1.03833 -0.294919   1.78541 255 255 255
 -1.10229 -0.211311    1.7526 255 255 255
 -1.02071 -0.332449   1.79064 255 255 255
 -1.08568 -0.278408   1.76275 255 255 255
-0.858978 -0.238603   1.81876 255 255 255
 -1.00233 -0.316358   1.79906 255 255 255
 -1.00981 -0.267131   1.79252 255 255 255
-1.18448 -0.37903  1.72648 255 255 255
-0.883325 -0.377263   1.86155 255 255 255
 -1.01719 -0.298863   1.79044 255 255 255
 -1.16683 -0.384192   1.72043 255 255 255
-0.920776  -0.26869   1.82608 255 255 255
-0.983952 -0.295053   1.80019 255 255 255
 -1.09047 -0.158387   1.73972 255 255 255
 -1.13482 -0.288227   1.75674 255 255 255
-0.984708 -0.401863   1.79168 255 255 255
-0.945417 -0.290698   1.81125 255 255 255
 -1.01095 -0.312616   1.79308 255 255 255
 -1.17282 -0.403914   1.71781 255 255 255
 -1.10935 -0.286054   1.76931 255 255 255
  -1.1805 -0.366745   1.72229 255 255 255
-0.923265   -0.3805   1.83845 255 255 255
 -1.06754 -0.274056   1.77693 255 255 255
 -1.00025 -0.171813   1.75376 255 255 255
-0.901381 -0.282489   1.84924 255 255 255
 -1.03081 -0.470613   1.77368 255 255 255
 -1.08655 -0.228276   1.75933 255 255 255
 -1.06751 -0.302917   1.77342 255 255 255
 -1.00589 -0.335104   1.78983 255 255 255
 -1.04381 -0.302707   1.78387 255 255 255
 -1.17412 -0.281228   1.74555 255 255 255
 -1.11684 -0.315149   1.76038 255 255 255
 -1.06283 -0.386287   1.77761 255 255 255
-0.997113 -0.214756   1.78494 255 255 255
-0.943176 -0.367084   1.81574 255 255 255
 -1.1679 -0.42615  1.71188 255 255 255
 -1.16595 -0.278555   1.75439 255 255 255
-0.914892 -0.347918   1.81871 255 255 255
 -1.19242 -0.355487   1.73707 255 255 255
 -1.12348 -0.269509   1.75431 255 255 255
-0.926866 -0.280954   1.81608 255 255 255
 -1.09815 -0.271654   1.76706 255 255 255
-0.965094 -0.255373   1.80346 255 255 255
-1.16263 -0.28445  1.75558 255 255 255
-0.918149 -0.276221   1.81883 255 255 255
-0.938662 -0.232143   1.80746 255 255 255
 -1.18335 -0.387292   1.73912 255 255 255
-0.922491 -0.369376   1.83624 255 255 255
 -1.18196 -0.436751   1.75644 255 255 255
 -1.05653 -0.322373   1.78051 255 255 255
 -1.05168 -0.320105   1.77841 255 255 255
 -1.05117 -0.241737   1.77041 255 255 255
-0.896732  -0.40002   1.83794 255 255 255
 -1.12863 -0.275207   1.75938 255 255 255
 -1.18374 -0.380608   1.73931 255 255 255
 -1.11935 -0.173043   1.72407 255 255 255
-0.901424 -0.381482    1.8365 255 255 255
-1.01333 -0.28727  1.79229 255 255 255
-0.994926 -0.174132   1.75347 255 255 255
 -1.04393 -0.197093   1.75438 255 255 255
-0.894543 -0.286009   1.85483 255 255 255
-0.95886  -0.3685  1.80809 255 255 255
  -1.1434 -0.448597   1.75752 255 255 255
 -1.01315 -0.295448   1.79319 255 255 255
 -1.17002 -0.405086   1.71072 255 255 255
-1.04831 -0.46026  1.77975 255 255 255
 -1.05652 -0.254166   1.76705 255 255 255
-0.994639 -0.285235   1.79755 255 255 255
 -1.01651 -0.299012   1.79204 255 255 255
-0.935586 -0.390652   1.81536 255 255 255
-0.907551 -0.480124   1.86577 255 255 255
 -1.03964 -0.388715   1.78526 255 255 255
 -1.05401 -0.475747   1.77325 255 255 255
 -1.01293 -0.303477    1.7956 255 255 255
-0.903971 -0.306993   1.81035 255 255 255
 -1.15972 -0.383433   1.72948 255 255 255
 -1.02214 -0.288982      1.79 255 255 255
 -1.10002 -0.217476   1.75359 255 255 255
 -1.14002 -0.282028   1.76258 255 255 255
-0.92851 -0.35059  1.81991 255 255 255
-0.970565 -0.163102   1.75057 255 255 255
 -1.09606 -0.206296   1.76329 255 255 255
 -1.19537 -0.291898   1.73862 255 255 255
-0.999257 -0.245532   1.79368 255 255 255
-1.01759 -0.29552  1.79103 255 255 255
-0.930359 -0.326333   1.81044 255 255 255
-0.953614 -0.158967   1.75491 255 255 255
-1.19352 -0.30034    1.738 255 255 255
-0.860799 -0.239223   1.81652 255 255 255
 -1.06495 -0.202617   1.76154 255 255 255
 -1.20095 -0.287322   1.74794 255 255 255
-0.886387 -0.237966   1.79623 255 255 255
 -1.03123 -0.192053   1.75587 255 255 255
 -1.08321 -0.244409   1.77051 255 255 255
 -1.06592 -0.329051   1.77751 255 255 255
 -1.06404 -0.184924   1.75129 255 255 255
 -1.07534 -0.387743   1.76957 255 255 255
-1.19204 -0.25354  1.74238 255 255 255
-0.912663 -0.268028   1.80372 255 255 255
-0.914608 -0.467837    1.8535 255 255 255
 -0.90285 -0.272586   1.85152 255 255 255
 -1.03944 -0.311279   1.78165 255 255 255
-1.11719 -0.20584  1.75033 255 255 255
 -1.08187 -0.357626   1.77256 255 255 255
 -1.05702 -0.356924   1.77358 255 255 255
-0.966812 -0.407114   1.79869 255 255 255
 -1.04673 -0.308377   1.78944 255 255 255
 -1.01119 -0.296793    1.7963 255 255 255
 -1.16059 -0.298741   1.74936 255 255 255
  -1.1917 -0.301946   1.73882 255 255 255
 -1.09856 -0.370178   1.76583 255 255 255
 -1.02788 -0.177764   1.75032 255 255 255
 -1.00364 -0.370193    1.8043 255 255 255
 -1.05758 -0.195096   1.75582 255 255 255
-1.06314 -0.18953  1.75082 255 255 255
 -1.03645 -0.455161   1.77647 255 255 255
 -1.08318 -0.282767   1.77253 255 255 255
 -1.05395 -0.191841   1.75523 255 255 255
 -1.00568 -0.176293   1.75532 255 255 255
 -1.16891 -0.409389   1.71959 255 255 255
 -1.02069 -0.388857    1.7902 255 255 255
-0.96488 -0.38062   1.8061 255 255 255
  -1.1884 -0.303873   1.74466 255 255 255
 -1.11917 -0.302395   1.76229 255 255 255
 -1.19321 -0.349965   1.73729 255 255 255
-0.995756 -0.347232   1.80223 255 255 255
  -1.0365 -0.193167   1.75444 255 255 255
 -1.01708 -0.453467   1.77629 255 255 255
 -1.00352 -0.177281   1.74947 255 255 255
-0.908453  -0.27062   1.84944 255 255 255
 -1.09436 -0.194032    1.7492 255 255 255
 -1.00233 -0.446697    1.7819 255 255 255
 -1.10289 -0.204703   1.76116 255 255 255
-0.895129 -0.409521    1.8407 255 255 255
 -1.05588 -0.293271   1.78078 255 255 255
-0.910932 -0.464979    1.8609 255 255 255
-0.923427 -0.475277   1.82708 255 255 255
 -1.04297 -0.201737   1.75754 255 255 255
-0.996935 -0.340117   1.79765 255 255 255
 -1.00561 -0.290882   1.79476 255 255 255
 -1.14369 -0.315201   1.75186 255 255 255
 -1.06188 -0.317457   1.77453 255 255 255
 -1.12432 -0.259046   1.75924 255 255 255
 -1.08284 -0.292355   1.77849 255 255 255
-0.989574 -0.167108   1.74995 255 255 255
 -1.10747 -0.213648   1.75498 255 255 255
 -1.07445 -0.286266   1.77713 255 255 255
-0.908073 -0.434556   1.83557 255 255 255
-1.03775 -0.29125  1.78358 255 255 255
 -1.14848 -0.296261   1.75365 255 255 255
 -1.06892 -0.365361   1.77222 255 255 255
-0.904137 -0.485279   1.87719 255 255 255
 -1.01512 -0.194956   1.76134 255 255 255
 -1.01781 -0.338196   1.79141 255 255 255
 -1.08521 -0.323585   1.76678 255 255 255
-0.986174  -0.48378   1.79131 255 255 255
  -1.0415 -0.270304   1.77733 255 255 255
 -1.07849 -0.210725   1.76832 255 255 255
 -0.89683 -0.277998   1.82272 255 255 255
-0.931921 -0.291849   1.81471 255 255 255
-0.967179 -0.224593   1.79952 255 255 255
-0.856046 -0.232722   1.81653 255 255 255
-1.01684 -0.28163  1.79162 255 255 255
 -1.02986 -0.292839   1.79323 255 255 255
-1.07333 -0.37633  1.77416 255 255 255
  -1.0812 -0.340353   1.77282 255 255 255
-0.925487  -0.27217   1.81475 255 255 255
 -1.01959 -0.174652    1.7508 255 255 255
 -1.01132 -0.292629   1.79935 255 255 255
 -1.19717 -0.328106   1.73689 255 255 255
 -1.19228 -0.328253   1.73283 255 255 255
-1.11413 -0.25907  1.76696 255 255 255
 -1.14096 -0.400291   1.73325 255 255 255
-1.08718  -0.2937  1.77175 255 255 255
 -1.13066 -0.275213   1.75679 255 255 255
-0.935217 -0.374235    1.8172 255 255 255
-0.987277 -0.209618    1.7814 255 255 255
 -1.04248 -0.155415   1.74366 255 255 255
 -1.12239 -0.272157   1.75495 255 255 255
 -1.01301 -0.329496     1.793 255 255 255
 -1.11438 -0.403612   1.76098 255 255 255
-0.988921  -0.49246   1.79735 255 255 255
 -1.01852 -0.175624   1.75262 255 255 255
 -1.18544 -0.297376   1.74118 255 255 255
 -1.01967 -0.364157   1.79617 255 255 255
 -1.03437 -0.488315   1.77006 255 255 255
 -1.08822 -0.479746   1.73429 255 255 255
-1.05752  -0.3095  1.78049 255 255 255
 -1.17378 -0.234098   1.74554 255 255 255
 -1.17783 -0.358809   1.72833 255 255 255
 -1.08528 -0.207959   1.76639 255 255 255
 -1.14659 -0.351056   1.74058 255 255 255
-0.941597 -0.372215    1.8174 255 255 255
 -1.04568 -0.182207   1.75052 255 255 255
 -1.03488 -0.491015   1.76932 255 255 255
 -1.19678 -0.297219    1.7377 255 255 255
-0.941061 -0.377387   1.82135 255 255 255
-0.944272 -0.417576    1.8186 255 255 255
 -1.16853 -0.395452   1.72044 255 255 255
 -1.04228 -0.284979   1.78374 255 255 255
-0.997523 -0.500282   1.78665 255 255 255
 -1.06254 -0.356589   1.77825 255 255 255
-0.888878  -0.41025    1.8744 255 255 255
-0.974584 -0.425416   1.80338 255 255 255
 -1.06495 -0.500965   1.74171 255 255 255
 -0.97129 -0.482485   1.79869 255 255 255
 -1.01821 -0.371913   1.79092 255 255 255
 -1.16464 -0.396082   1.72342 255 255 255
-0.992363  -0.17309   1.75319 255 255 255
 -1.00515 -0.300915   1.79909 255 255 255
-0.999824 -0.261178   1.78595 255 255 255
-0.993096 -0.452341   1.79271 255 255 255
 -1.05821 -0.243177   1.76936 255 255 255
-0.959631 -0.321981   1.80969 255 255 255
 -1.11441 -0.205037   1.75072 255 255 255
 -1.10496 -0.200917   1.76054 255 255 255
 -1.02782 -0.301489   1.78572 255 255 255
 -1.09144 -0.199737   1.74322 255 255 255
  -1.0219 -0.290565   1.79589 255 255 255
 -1.06169 -0.228398   1.76525 255 255 255
 -1.00727 -0.319394   1.79203 255 255 255
 -1.17108 -0.314656   1.74511 255 255 255
 -1.11461 -0.357471   1.75746 255 255 255
-0.920285 -0.256425   1.83582 255 255 255
  -0.9253 -0.286723    1.8167 255 255 255
-1.17573 -0.30832  1.74456 255 255 255
 -1.07649 -0.414686    1.7728 255 255 255
-0.895415 -0.494942   1.88509 255 255 255
 -1.15294 -0.283796   1.75216 255 255 255
 -1.13752 -0.286234   1.75672 255 255 255
 -1.04013 -0.274637   1.78328 255 255 255
 -1.00155 -0.271194   1.79681 255 255 255
-0.934656 -0.437572   1.82026 255 255 255
 -1.09319 -0.207817   1.76454 255 255 255
 -1.10234 -0.287643   1.76742 255 255 255
 -1.01129 -0.293516   1.79345 255 255 255
-1.02169 -0.28123  1.78983 255 255 255
-0.906612  -0.43305   1.83745 255 255 255
-0.996417 -0.317725   1.80722 255 255 255
 -1.03669 -0.376098   1.78424 255 255 255
 -1.04684 -0.371938   1.78502 255 255 255
-1.07872 -0.28757  1.77407 255 255 255
 -1.08288 -0.276255   1.76895 255 255 255
 -1.10099 -0.304465   1.76878 255 255 255
 -1.06051 -0.332375   1.78235 255 255 255
 -1.04718 -0.297126   1.78276 255 255 255
-0.962034 -0.280888   1.80634 255 255 255
 -1.08404 -0.299172   1.77322 255 255 255
 -1.06327 -0.307018   1.76975 255 255 255
 -1.08375 -0.290712   1.76886 255 255 255
 -1.07983 -0.263886   1.76398 255 255 255
 -1.03597 -0.289549   1.79149 255 255 255
-1.03113 -0.31372  1.78748 255 255 255
 -1.01961 -0.302155   1.79178 255 255 255
-0.949217 -0.500712   1.80871 255 255 255
-0.938269 -0.520026   1.80927 255 255 255
 -1.16195 -0.385477   1.72423 255 255 255
-0.968301 -0.314711   1.80609 255 255 255
 -1.09075 -0.277744    1.7672 255 255 255
 -1.13134 -0.291459   1.75437 255 255 255
 -1.09603 -0.282939   1.77287 255 255 255
  -1.1994 -0.331537   1.73571 255 255 255
 -1.00106 -0.371317   1.79636 255 255 255
-0.986379 -0.396758   1.79267 255 255 255
-0.920774 -0.488503   1.81721 255 255 255
-0.99355 -0.36919  1.80259 255 255 255
-0.982724 -0.475265   1.79833 255 255 255
 -1.03625 -0.314709   1.78654 255 255 255
 -1.16281 -0.268759   1.74862 255 255 255
 -1.09295 -0.204571   1.75045 255 255 255
 -1.09221 -0.256078   1.75635 255 255 255
 -1.19375 -0.333214   1.73782 255 255 255
-1.08649 -0.36093  1.77073 255 255 255
  -1.0439 -0.415557   1.78225 255 255 255
-0.902941 -0.272117   1.84567 255 255 255
-0.976492 -0.472634   1.80268 255 255 255
-0.918271  -0.24545   1.79665 255 255 255
 -1.04789 -0.270907   1.78209 255 255 255
-0.985333 -0.385973    1.8113 255 255 255
 -1.13437 -0.275487   1.75752 255 255 255
 -1.13635 -0.304401   1.75248 255 255 255
 -1.07636 -0.280946   1.77463 255 255 255
  -1.0807 -0.247499   1.77134 255 255 255
 -1.18467 -0.385826   1.71566 255 255 255
 -1.00711 -0.402958   1.80204 255 255 255
 -1.19288 -0.337161   1.72833 255 255 255
-1.00113 -0.48076  1.78439 255 255 255
-0.943643 -0.485704    1.8104 255 255 255
 -1.10849 -0.195657   1.75907 255 255 255
-0.99444 -0.46985  1.79592 255 255 255
 -1.13072 -0.284447   1.75568 255 255 255
-0.898299 -0.331131   1.81476 255 255 255
 -0.95267 -0.410974   1.80976 255 255 255
 -1.01972 -0.280555   1.79063 255 255 255
 -1.05967 -0.299005   1.77399 255 255 255
-0.888553 -0.318895   1.85493 255 255 255
 -1.16071 -0.304152   1.74901 255 255 255
 -1.06307 -0.278553   1.77848 255 255 255
-1.18995 -0.29895  1.74095 255 255 255
-0.992414  -0.50629   1.78401 255 255 255
 -1.05735 -0.210058    1.7581 255 255 255
 -1.02658 -0.470555   1.77843 255 255 255
 -0.89425 -0.242648   1.82366 255 255 255
-1.03018 -0.25831  1.78891 255 255 255
-0.931387   -0.2893    1.8146 255 255 255
   -1.001 -0.383379   1.80215 255 255 255
-0.961872 -0.260078   1.80454 255 255 255
 -1.08191 -0.326258   1.77324 255 255 255
 -1.18218 -0.375655   1.71775 255 255 255
-0.924714 -0.233334   1.79405 255 255 255
 -1.05159 -0.373963   1.78101 255 255 255
 -1.14572 -0.313131   1.75312 255 255 255
-0.991226 -0.466634   1.79746 255 255 255
 -0.94362 -0.408292   1.81734 255 255 255
 -1.00861 -0.289999   1.78916 255 255 255
 -1.1108 -0.20139    1.744 255 255 255
 -1.01605 -0.287732   1.79277 255 255 255
  -1.0639 -0.301924   1.77817 255 255 255
 -1.08211 -0.362072   1.76924 255 255 255
 -1.13168 -0.319452   1.75493 255 255 255
 -1.09372 -0.308118   1.76396 255 255 255
 -1.07488 -0.392146   1.76865 255 255 255
 -1.16959 -0.336223   1.73819 255 255 255
-0.961723 -0.277332   1.80574 255 255 255
 -1.00326 -0.477778   1.79101 255 255 255
 -1.03228 -0.452985   1.78049 255 255 255
 -1.00274 -0.482798   1.79073 255 255 255
-0.931716 -0.255617   1.79731 255 255 255
 -1.05085 -0.275907   1.78601 255 255 255
 -1.08957 -0.276578   1.76844 255 255 255
 -1.01806 -0.309649   1.79774 255 255 255
-1.16186 -0.40216  1.72116 255 255 255
-0.902767 -0.240455   1.81907 255 255 255
  -1.0662 -0.203625    1.7582 255 255 255
 -0.97775 -0.257884   1.80053 255 255 255
-1.04905 -0.36497  1.78215 255 255 255
 -1.03201 -0.284948   1.78701 255 255 255
 -1.12265 -0.357103   1.76004 255 255 255
 -1.01429 -0.474098   1.78565 255 255 255
 -1.03244 -0.275166   1.78635 255 255 255
-0.959791 -0.479961   1.80914 255 255 255
-0.999596 -0.281566   1.79625 255 255 255
 -1.10292 -0.256667   1.75756 255 255 255
 -1.10756 -0.330108   1.76051 255 255 255
 -1.16972 -0.356509   1.73352 255 255 255
 -1.08301 -0.305469   1.77281 255 255 255
-0.994816 -0.203506   1.78973 255 255 255
-0.955958 -0.362622   1.80944 255 255 255
 -1.02143 -0.375249   1.79009 255 255 255
-0.875134 -0.294038    1.8166 255 255 255
 -1.16092 -0.362349   1.74731 255 255 255
-1.05065 -0.34299  1.77974 255 255 255
-0.996233 -0.372666   1.78864 255 255 255
-0.942798  -0.52764   1.80535 255 255 255
-0.941062 -0.276401   1.82401 255 255 255
 -1.12173 -0.414392   1.73753 255 255 255
 -1.13024 -0.314967   1.75901 255 255 255
 -1.00451 -0.505054   1.77769 255 255 255
 -1.00711 -0.314975   1.79342 255 255 255
 -1.04047 -0.370666   1.78147 255 255 255
 -1.02621 -0.279258   1.78827 255 255 255
-0.992382 -0.329345   1.80503 255 255 255
 -1.01265 -0.342522   1.79202 255 255 255
 -1.00064 -0.559625   1.76782 255 255 255
 -1.03665 -0.444397   1.77638 255 255 255
 -1.02475 -0.276889   1.78885 255 255 255
 -1.16227 -0.404547   1.72116 255 255 255
-0.994563 -0.475972   1.79102 255 255 255
 -1.05993 -0.280512     1.777 255 255 255
-0.940025 -0.348974   1.81329 255 255 255
 -1.10601 -0.287035   1.76349 255 255 255
 -1.10992 -0.297392   1.76041 255 255 255
-0.944723 -0.520962   1.80784 255 255 255
 -1.09864 -0.262017   1.76061 255 255 255
 -1.02164 -0.309676    1.7973 255 255 255
 -1.10167 -0.283702   1.77414 255 255 255
 -1.05048 -0.473992   1.77623 255 255 255
-0.870031 -0.268946   1.83478 255 255 255
  -1.1449 -0.372296   1.73604 255 255 255
 -1.01743 -0.476364    1.7818 255 255 255
 -1.07357 -0.311346   1.77561 255 255 255
 -1.1943 -0.36263  1.73636 255 255 255
 -1.00327 -0.509465   1.77853 255 255 255
 -1.18118 -0.314605    1.7422 255 255 255
 -1.14625 -0.282794   1.75795 255 255 255
 -1.14991 -0.374776   1.73764 255 255 255
 -1.09906 -0.333529   1.76483 255 255 255
 -1.09206 -0.240609   1.76713 255 255 255
 -1.10383 -0.264244   1.76002 255 255 255
-0.939393 -0.406913   1.82153 255 255 255
 -1.19781 -0.287882   1.73748 255 255 255
-0.993761 -0.457323   1.79742 255 255 255
 -1.07206 -0.201757   1.76929 255 255 255
 -1.03759 -0.212178   1.77924 255 255 255
