ply
format ascii 1.0
element vertex 1227
property float x
property float y
property float z
property uchar red
property uchar green
property uchar blue
end_header
-1.80911 -1.36836  3.14933 255 255 255
-1.38724 -1.50828   4.4793 255 255 255
-2.84109 -1.30978  4.60492 255 255 255
-2.10629 -1.33737  4.72409 255 255 255
-2.06947 -1.40443  4.17893 255 255 255
-1.98033 -1.37619  4.89996 255 255 255
-2.69082 -1.23104  4.31652 255 255 255
 -1.6746 -1.45682  4.70334 255 255 255
-2.57963 -1.24938  4.37659 255 255 255
-2.35267 -1.30683  4.62184 255 255 255
-1.64714  -1.4158  4.78168 255 255 255
-1.45818 -1.48863  4.79782 255 255 255
-2.57312 -1.19397  3.72247 255 255 255
-2.39365 -1.22327   3.3196 255 255 255
-1.84451 -1.40425  4.76815 255 255 255
-3.04551 -1.17398  3.92393 255 255 255
-2.43986 -1.32539   4.8824 255 255 255
-2.78981 -1.17219  3.62382 255 255 255
-2.42183  -1.2553  4.01671 255 255 255
 -2.6574 -1.34205  4.88286 255 255 255
-1.99501 -1.38452  4.34888 255 255 255
-2.54618 -1.22142  4.25268 255 255 255
-2.64073 -1.37512  5.00657 255 255 255
-2.47017  -1.2307   3.6574 255 255 255
-2.26603 -1.27385  4.15606 255 255 255
-2.29225 -1.34636  4.76719 255 255 255
 -2.4349 -1.23317  3.55015 255 255 255
-2.28265 -1.26268  4.06997 255 255 255
-2.44306 -1.32027  4.83242 255 255 255
-2.52093 -1.22161  3.53359 255 255 255
-2.47771 -1.18571  3.84754 255 255 255
-2.61582 -1.26709  4.60227 255 255 255
 -2.0943 -1.37887  3.91012 255 255 255
-2.24903  -1.3885  4.11085 255 255 255
-2.97006 -1.12716  3.94148 255 255 255
-2.76897 -1.18205  4.15982 255 255 255
-2.49937 -1.28129  4.63511 255 255 255
-2.63695 -1.24094  4.42815 255 255 255
-2.63254 -1.20988   3.6494 255 255 255
-2.45904 -1.22429  4.04673 255 255 255
-1.59122  -1.5747  3.29648 255 255 255
-1.84587 -1.42981  3.29291 255 255 255
-1.37265 -1.39442  2.92122 255 255 255
-2.60049 -1.26332   4.5375 255 255 255
-1.61603  -1.5755   3.4167 255 255 255
-2.20879 -1.35399  4.40717 255 255 255
-2.44131 -1.23683  3.86393 255 255 255
-2.22487 -1.32395  4.24971 255 255 255
-1.28807 -1.73511  3.36017 255 255 255
-1.92494 -1.00488  2.75024 255 255 255
 -1.5265 -1.59654  3.31696 255 255 255
-2.33583 -1.31059  4.66196 255 255 255
-2.12942 -1.29023  3.50373 255 255 255
-2.19304  -1.3369  4.45141 255 255 255
-1.49022 -1.51431  3.93866 255 255 255
-1.68792 -1.36186  4.78789 255 255 255
-2.79536 -1.17166  4.16759 255 255 255
-2.30123 -1.29876  5.03523 255 255 255
-1.51297 -1.52234  3.93488 255 255 255
-1.93376 -1.43522  4.23203 255 255 255
-2.96703 -1.25954  4.36878 255 255 255
-2.57833 -1.34061  4.82039 255 255 255
-2.85535 -1.15436  3.91171 255 255 255
-1.85825 -1.37387  3.24019 255 255 255
-2.59737 -1.27995   4.6481 255 255 255
-2.65452  -1.2478  4.41537 255 255 255
-2.28782 -1.00855  2.98981 255 255 255
  -2.831 -1.27083  4.49757 255 255 255
-2.07775 -1.36646  4.92624 255 255 255
-1.97061 -1.35343  4.72174 255 255 255
-2.23103  -1.3148  3.92818 255 255 255
-2.22955 -1.32055   4.6429 255 255 255
-1.78682 -1.43332  4.38722 255 255 255
-2.89807 -1.28679  4.45634 255 255 255
-1.92041 -1.33269  4.92439 255 255 255
-2.78428 -1.20249  3.95097 255 255 255
  -2.919 -1.21849  4.29991 255 255 255
-2.82102 -1.21394  4.37059 255 255 255
 -2.2333 -1.32012  4.47805 255 255 255
-2.36421 -1.34784   4.9627 255 255 255
-2.37037 -1.32277  4.44186 255 255 255
-1.60815 -1.35938  4.88926 255 255 255
-2.85759 -1.14458   3.8587 255 255 255
-2.76215 -1.14943  3.52876 255 255 255
-1.89361 -1.39533  4.09171 255 255 255
-2.34645 -1.25606  4.07536 255 255 255
-2.50723 -1.20958  3.97139 255 255 255
-2.45096 -1.19525  3.48455 255 255 255
-2.62293 -1.26016  4.40393 255 255 255
 -1.5552 -1.55386  4.48667 255 255 255
-2.72832 -1.28617  4.60313 255 255 255
 -1.9047 -1.36457  4.78947 255 255 255
-2.70448 -1.15522  4.02062 255 255 255
 -2.6959 -1.40356  5.04001 255 255 255
-2.21671 -1.33578    3.576 255 255 255
-2.37222 -1.26287  3.98866 255 255 255
 -2.8677 -1.18167  4.15318 255 255 255
-2.46256 -1.33149  4.84801 255 255 255
-2.99538 -1.29795  4.44403 255 255 255
  -1.889 -1.42546  3.86977 255 255 255
-2.28478 -1.24743  4.09738 255 255 255
-2.49901 -1.28028  4.66358 255 255 255
-2.58167 -1.26165  4.49116 255 255 255
 -2.2507 -1.30226  5.08786 255 255 255
-1.90984 -1.42323  4.26482 255 255 255
-2.01834 -1.36895  3.72323 255 255 255
-2.06313 -1.37214  4.44502 255 255 255
-2.71077 -1.17454  3.84768 255 255 255
-2.35353 -1.31957  4.68682 255 255 255
-2.63103  -1.2552  4.53413 255 255 255
-2.64931 -1.26255  4.42489 255 255 255
-2.15231 -1.36087  4.78376 255 255 255
-1.53463  -1.4963  4.28959 255 255 255
-2.80179 -1.15879  3.81315 255 255 255
-2.54865 -1.28034  4.42493 255 255 255
-2.69515 -1.28392  4.62429 255 255 255
-3.33148 -1.31379  4.30588 255 255 255
-2.59927 -1.19373  3.44503 255 255 255
-3.01209 -1.31101   4.5042 255 255 255
-1.64419 -1.59668  3.50496 255 255 255
-2.09195 -1.36078  4.08737 255 255 255
-2.31687 -1.32195  4.57201 255 255 255
-2.10866 -1.37858  4.06992 255 255 255
-2.80799 -1.15527  3.96459 255 255 255
-2.86623 -1.16574  3.80737 255 255 255
-2.53253 -1.17442  3.70698 255 255 255
-2.69989  -1.2633  4.51935 255 255 255
-2.51705 -1.19896  3.73468 255 255 255
-2.75285 -1.17746  3.80221 255 255 255
-2.62698 -1.24772  4.51029 255 255 255
-2.05756 -1.33556  4.74885 255 255 255
-1.66143 -1.60303  3.64122 255 255 255
-2.36942 -1.27573  4.29044 255 255 255
-2.68929 -1.27714  4.63166 255 255 255
  -2.721 -1.25287  4.44609 255 255 255
-1.52691 -1.52267  4.13547 255 255 255
-2.59409 -1.25271  4.47364 255 255 255
 -2.12618 -0.867997   2.68399 255 255 255
-1.95363 -1.32751  3.84248 255 255 255
-2.64291 -1.27374  4.56777 255 255 255
 -2.5483 -1.18532  3.87464 255 255 255
-2.83848 -1.16452   3.8661 255 255 255
-2.1528 -1.3451 4.76712 255 255 255
-2.40979 -1.24254  3.96723 255 255 255
-2.26005 -1.32403  4.16754 255 255 255
-2.40773 -1.03013  3.05464 255 255 255
-2.64516 -1.27877  4.60615 255 255 255
 -2.9579 -1.35994  4.69676 255 255 255
-2.60054 -1.29641  4.60816 255 255 255
-1.85816 -1.44391  4.50084 255 255 255
-2.55647 -1.20987  4.02047 255 255 255
-2.34467 -1.26381   3.8669 255 255 255
-2.50471 -1.29704  4.68036 255 255 255
-2.62133 -1.20116  3.65519 255 255 255
-1.41969 -1.65075  4.05116 255 255 255
-2.09609 -1.35347  4.78529 255 255 255
-2.63118 -1.18558   4.0388 255 255 255
-2.93824 -1.13368  3.81606 255 255 255
 -2.2833 -1.02161  2.94361 255 255 255
-2.23412 -1.32764  4.39563 255 255 255
-2.55851 -1.32388  4.78281 255 255 255
-1.91913 -1.45767  4.03594 255 255 255
-2.83328 -1.25484  4.43707 255 255 255
-2.03004 -1.38808   4.9138 255 255 255
-2.25641 -1.32361  4.71316 255 255 255
-1.86818 -1.45181  3.90493 255 255 255
-2.38413 -1.30603   4.5442 255 255 255
-2.62724 -1.27112  4.57308 255 255 255
-2.27888 -1.31768  4.60164 255 255 255
-1.44291 -1.66439  4.01426 255 255 255
-2.74124 -1.19054  4.19148 255 255 255
-2.47282 -1.30719  4.53691 255 255 255
-2.39166 -1.26086  4.02094 255 255 255
-1.74034 -1.43361  4.23766 255 255 255
-2.44806 -1.23579  4.07449 255 255 255
 -2.04764 -0.938017    2.7167 255 255 255
-2.21866  -1.2483  3.33264 255 255 255
 -1.1546 -1.81651  3.44535 255 255 255
-2.24647 -1.32001  4.64454 255 255 255
-2.06608 -1.36028  4.01661 255 255 255
-2.13165 -1.34507  4.45989 255 255 255
-3.18992  -1.3848  4.58436 255 255 255
-2.14486  -1.2626   3.5401 255 255 255
 -2.0084 -1.38668  4.04217 255 255 255
-1.81033 -1.42441  3.90611 255 255 255
-2.45779 -1.24641  4.28679 255 255 255
-2.56159 -1.18841   3.7866 255 255 255
-1.75059 -1.51976  3.38316 255 255 255
-1.82999 -1.39725  4.69664 255 255 255
-1.79013 -1.41725  4.46265 255 255 255
-1.79532 -1.34368   4.8098 255 255 255
-1.27347 -1.54381  4.37703 255 255 255
-2.92127  -1.1972  4.19723 255 255 255
 -2.2724 -1.36041  4.87858 255 255 255
-2.94093 -1.31793  4.54378 255 255 255
-2.68997 -1.18317  3.67129 255 255 255
-2.17552 -1.33717  4.67352 255 255 255
-1.87326 -1.47367  3.34314 255 255 255
-2.06702 -1.32655  3.50691 255 255 255
-2.22209 -1.27127  4.05499 255 255 255
-1.57823 -1.49159  4.09073 255 255 255
-2.51761 -1.26925  4.50245 255 255 255
-1.44532 -1.60222  4.03099 255 255 255
-2.73845 -1.13114  4.01009 255 255 255
-2.77361 -1.14271  4.06249 255 255 255
-1.79812 -1.34607  4.69811 255 255 255
-2.99398 -1.11533  3.85907 255 255 255
-2.76649 -1.12787  4.01118 255 255 255
-2.06203  -1.2787  3.83505 255 255 255
-2.46064 -1.30136  4.61846 255 255 255
-2.67487 -1.22367  4.29419 255 255 255
-2.28951 -1.23114  4.06061 255 255 255
-2.32029 -1.13194  3.20147 255 255 255
-1.81285 -1.40143  4.52066 255 255 255
-2.06969 -1.34197  4.65531 255 255 255
-2.94381 -1.11224  3.91904 255 255 255
 -2.3826 -1.35306  4.84821 255 255 255
-1.69475 -1.42502  3.84251 255 255 255
-1.49691 -1.67474  3.91386 255 255 255
-2.5843 -1.2735 4.57642 255 255 255
-1.79475 -1.41938  4.48501 255 255 255
-2.95205 -1.22968  4.28345 255 255 255
-2.12948 -1.30368  3.75383 255 255 255
-2.41769 -1.30347  4.58744 255 255 255
-2.56045  -1.2367  3.52435 255 255 255
-3.25396 -1.28065  4.25219 255 255 255
-1.59158 -1.38967  4.48769 255 255 255
-3.24139 -1.26237  4.22793 255 255 255
-2.34668  -1.2755   3.7417 255 255 255
-2.55683 -1.28649  4.73111 255 255 255
-2.98826 -1.34697  4.59254 255 255 255
 -2.9177 -1.35223  4.75601 255 255 255
-2.88807 -1.26402  4.46571 255 255 255
-2.99841 -1.31744  4.50376 255 255 255
-2.21248 -1.36816  4.87364 255 255 255
-1.52577 -1.44984   4.6023 255 255 255
-2.9702 -1.3108 4.48726 255 255 255
-2.41252 -1.30108  4.65806 255 255 255
-2.90532 -1.31093  4.55578 255 255 255
-2.20836 -1.29822  4.28063 255 255 255
-1.46086 -1.63748  3.93928 255 255 255
-2.10651 -1.30506  4.83489 255 255 255
-2.62933  -1.2786  4.64648 255 255 255
-2.54605 -1.28512  4.58648 255 255 255
-2.18632  -1.3502  4.80192 255 255 255
-2.83637 -1.12804  3.99049 255 255 255
-2.27013  -1.2654   3.9477 255 255 255
-1.76503  -1.4292  4.32626 255 255 255
 -1.9265 -1.38161  4.76145 255 255 255
-1.79058 -1.45917  3.21521 255 255 255
-2.36259 -1.32701  4.62069 255 255 255
-2.64231 -1.16516  3.87014 255 255 255
-2.90787 -1.32973  4.63282 255 255 255
-2.50983 -1.21821  3.68503 255 255 255
 -2.0537 -1.34651  4.43009 255 255 255
-2.20271 -1.30637  4.16888 255 255 255
-2.14208 -1.35423  4.70237 255 255 255
-1.96693 -1.42215  3.36929 255 255 255
-2.00035  -1.3719  4.80206 255 255 255
-2.10454 -1.41569  4.17609 255 255 255
-1.67652 -1.41968  4.34251 255 255 255
 -1.5829 -1.46263  4.46856 255 255 255
-1.59142  -1.3722  4.65607 255 255 255
-2.12613 -1.33114  4.78784 255 255 255
-2.50281  -1.2575   4.1672 255 255 255
-2.35068 -1.04815  3.02722 255 255 255
-1.98812 -1.39691  5.01002 255 255 255
-2.29897 -1.36543  4.93204 255 255 255
-2.10819 -1.35099  4.94047 255 255 255
-2.06923 -1.29682  3.91022 255 255 255
-2.78809 -1.21637  4.30344 255 255 255
-2.43697 -1.09773  3.16358 255 255 255
-2.78613 -1.12384   4.0316 255 255 255
-2.53869 -1.26775  4.47164 255 255 255
-1.87548 -1.35771  4.66637 255 255 255
-2.74349 -1.12634  3.93726 255 255 255
-2.91949 -1.19456  3.92894 255 255 255
-2.10394 -1.37209  4.83397 255 255 255
-2.69624 -1.21366  4.37254 255 255 255
-2.92916 -1.11784  3.96348 255 255 255
-2.63417 -1.17993  4.00414 255 255 255
-2.81976 -1.23973  4.39945 255 255 255
-2.33623 -1.18474  3.22077 255 255 255
-2.53641 -1.26358  4.39237 255 255 255
-2.20979 -1.22878  3.21582 255 255 255
-1.88545 -1.36976  4.68805 255 255 255
-2.97472 -1.11244   3.9278 255 255 255
-2.55015 -1.27394  4.64203 255 255 255
-2.41776 -1.23987  4.03631 255 255 255
-2.20605 -1.31415  4.61235 255 255 255
-1.97437 -1.37915  4.72369 255 255 255
-2.76715 -1.17019  4.20958 255 255 255
-2.19085 -1.35958  4.29326 255 255 255
-2.43845 -1.29773  4.57519 255 255 255
-2.64595 -1.15678   3.7158 255 255 255
-3.20616 -1.24098  4.17965 255 255 255
-2.91064 -1.26825  4.44942 255 255 255
-2.93989 -1.15924  3.86561 255 255 255
-2.54921 -1.27727  4.62423 255 255 255
-1.74364 -1.39591  4.50511 255 255 255
 -3.0843 -1.17961  4.07399 255 255 255
-1.92192  -1.5087  3.41537 255 255 255
-2.15341 -1.28814  3.92114 255 255 255
-1.90158 -1.37596  4.22239 255 255 255
-2.51409 -1.27168  4.48827 255 255 255
-2.32405 -1.31104  4.52126 255 255 255
-2.86094 -1.17342  4.16714 255 255 255
-2.4735  -1.214 4.16019 255 255 255
-2.5041 -1.2325 4.23688 255 255 255
-2.05202 -1.30876  3.86991 255 255 255
-1.98584 -1.36427  4.62405 255 255 255
-1.98195 -1.37652   5.0145 255 255 255
-2.06057 -1.37311  4.47633 255 255 255
-2.75237 -1.23739  4.45166 255 255 255
-2.23415 -1.26988  4.09394 255 255 255
-2.18466 -1.37329  4.92484 255 255 255
-2.69531 -1.21684  4.25943 255 255 255
 -1.6576 -1.41491  4.47772 255 255 255
-2.21917 -1.37283  4.29455 255 255 255
-2.97239 -1.08942    3.881 255 255 255
-2.51106 -1.18524  3.87281 255 255 255
-2.77193 -1.20975  4.31525 255 255 255
-2.80766 -1.13662  3.94515 255 255 255
-2.63187 -1.27258  4.48864 255 255 255
-2.85826  -1.1312   3.8788 255 255 255
-2.84629 -1.12993  3.67992 255 255 255
-2.85631 -1.11178  3.91283 255 255 255
-2.10379 -1.34073  4.59634 255 255 255
-2.29475 -1.28975  3.87734 255 255 255
-2.43489 -1.30067  4.60491 255 255 255
-2.80627 -1.11666  4.00564 255 255 255
-2.51686 -1.22414  4.01206 255 255 255
 -2.6314 -1.16296   3.8159 255 255 255
-2.47722 -1.12454  3.23518 255 255 255
-2.96858 -1.11278  3.91337 255 255 255
-2.12393 -1.34757  3.70542 255 255 255
-1.63042  -1.4522  4.10532 255 255 255
-1.63813 -1.46312  4.01619 255 255 255
-2.36139 -1.30818  4.48412 255 255 255
-2.44738 -1.33241  4.78778 255 255 255
-2.45342 -1.32349   4.7573 255 255 255
-2.45907 -1.30464  4.64437 255 255 255
-2.47459  -1.2616   4.3143 255 255 255
-2.28918 -1.37679  4.93756 255 255 255
-2.34606  -1.2851  4.03532 255 255 255
-1.96708  -1.4002  4.93003 255 255 255
-2.50367 -1.22839  3.85808 255 255 255
-2.88001 -1.19737  4.22618 255 255 255
-2.35789 -1.36704  4.94564 255 255 255
-2.41509  -1.2348  3.61072 255 255 255
-2.02608 -1.35662   5.0307 255 255 255
-2.50136  -1.3116  4.69681 255 255 255
-2.28357 -1.27248  4.18453 255 255 255
-2.40349 -1.26837  3.40925 255 255 255
-1.68113 -1.40383  4.44913 255 255 255
-2.70033 -1.24036  4.41805 255 255 255
-2.53282 -1.30066  4.59714 255 255 255
-2.45827  -1.3198   4.7729 255 255 255
 -2.0491 -1.38646  4.86859 255 255 255
 -2.5382 -1.17497  3.32949 255 255 255
-2.4855 -1.1908 3.80279 255 255 255
-2.00768 -1.38436  5.07185 255 255 255
-2.90569 -1.21109  4.26556 255 255 255
-2.44072  -1.2612  4.24105 255 255 255
-1.98916 -1.39587  4.82837 255 255 255
-2.57559 -1.18044  3.35928 255 255 255
-2.12241   -1.383  5.09238 255 255 255
-2.06567  -1.3506  4.70577 255 255 255
-2.58089 -1.26624  4.44534 255 255 255
-1.61317 -1.42581  4.53569 255 255 255
-2.30537 -1.29837  4.38553 255 255 255
-2.51566 -1.22551  4.33517 255 255 255
-2.50626 -1.29404  4.62899 255 255 255
-2.79379 -1.22425  4.36875 255 255 255
-2.78883 -1.22596  4.37838 255 255 255
-2.10556 -1.30168  3.82359 255 255 255
 -2.8898 -1.18648  3.93971 255 255 255
-2.59661 -1.27979  4.44298 255 255 255
-2.87124 -1.14323  3.99141 255 255 255
-2.14762 -1.29798  3.93387 255 255 255
-2.29421 -1.33228  4.72945 255 255 255
-1.87284 -1.35124  3.71059 255 255 255
 -2.3241 -1.26072   3.2576 255 255 255
-2.28334 -1.31526  4.52338 255 255 255
-2.21191  -1.3282   3.6885 255 255 255
-2.72009 -1.18464  4.14856 255 255 255
 -2.3815 -1.22134  3.62875 255 255 255
-2.72895 -1.26822  4.50821 255 255 255
-2.34641 -1.34739  4.81153 255 255 255
  -2.198 -1.31551  4.36142 255 255 255
-2.61513 -1.22142  3.61883 255 255 255
-2.40592 -1.24431  4.13399 255 255 255
-2.32971 -1.32154  4.68822 255 255 255
-2.66963 -1.25014  3.56047 255 255 255
-2.55813 -1.31713  4.69987 255 255 255
-2.39574 -1.30134  4.51871 255 255 255
-2.06329 -1.36856  4.75157 255 255 255
-2.17898 -1.37165  4.83138 255 255 255
-1.68724 -1.38802  4.93559 255 255 255
-2.06654 -1.32472  3.96041 255 255 255
-2.07307 -1.33541  4.43061 255 255 255
-1.66728 -1.37075  4.59092 255 255 255
-2.38885 -1.34246  4.77513 255 255 255
-2.80593 -1.12996  4.18173 255 255 255
-2.60138  -1.3389  4.75829 255 255 255
-2.33239 -1.33763   4.7565 255 255 255
-2.26875 -1.28667  4.32548 255 255 255
 -2.5608 -1.19209  3.95207 255 255 255
-2.69649 -1.14828   3.8719 255 255 255
-2.13967 -1.32482   4.2533 255 255 255
-1.56152 -1.43312  3.96658 255 255 255
-2.00987 -1.31103  4.01731 255 255 255
-2.80545 -1.14308  4.06764 255 255 255
-2.63578  -1.2003   4.0593 255 255 255
-2.34356 -1.34701  4.76889 255 255 255
-2.83499 -1.18433  3.92049 255 255 255
 -2.7574 -1.16675  4.17458 255 255 255
-1.91634   -1.348   4.6554 255 255 255
-1.67362 -1.35491  4.81739 255 255 255
-2.59608 -1.20327  3.69536 255 255 255
-3.02892 -1.33121  4.48759 255 255 255
-2.33416 -1.20526  3.27831 255 255 255
-2.72951 -1.13713  4.01243 255 255 255
-2.67544 -1.17572  4.06507 255 255 255
-1.94745 -1.36822  4.10745 255 255 255
-1.62679 -1.48058  4.05785 255 255 255
-2.43384 -1.34854   4.8889 255 255 255
-2.12613 -1.32687  4.65381 255 255 255
-2.45026 -1.34556   4.7524 255 255 255
-2.74874 -1.27938  4.56895 255 255 255
-2.52628 -1.21942  3.64483 255 255 255
-2.51754 -1.23978  4.30518 255 255 255
 -2.2028 -1.30215  4.18649 255 255 255
-2.41395 -1.26065  4.30523 255 255 255
-2.74596 -1.18176  4.24513 255 255 255
-2.28348 -1.36084  4.82673 255 255 255
-2.45024 -1.23331  4.02705 255 255 255
-2.34578  -1.3131  4.65344 255 255 255
-1.67973 -1.46677  4.37498 255 255 255
-2.84826 -1.29338   4.5246 255 255 255
-2.44656 -1.22897  4.22139 255 255 255
-2.32416 -1.29692  4.37536 255 255 255
-2.44366 -1.32365  4.76451 255 255 255
-2.35126 -1.30602  4.69369 255 255 255
-2.68083 -1.28064  4.52886 255 255 255
-1.63964 -1.42289  4.96323 255 255 255
-2.46857 -1.33989  4.81962 255 255 255
-2.48746 -1.24174  3.35731 255 255 255
-2.38243 -1.23875  3.77077 255 255 255
-2.38674 -1.22356  3.25721 255 255 255
-2.75012 -1.12753  4.01761 255 255 255
-2.20076 -1.29502  4.24308 255 255 255
-2.56379 -1.22375  4.22288 255 255 255
-2.67399 -1.20809  3.63927 255 255 255
-1.23603 -1.49677  4.19566 255 255 255
 -2.1559 -1.33127  4.37649 255 255 255
-2.56684 -1.17926  4.05037 255 255 255
-1.99892 -1.38367  4.58653 255 255 255
  -2.498 -1.29866  4.56437 255 255 255
-1.92478 -1.39423  4.89578 255 255 255
-2.79179  -1.1378  4.07866 255 255 255
-2.70467  -1.1852  3.84151 255 255 255
-2.03325 -1.37831  4.72679 255 255 255
-2.15455 -1.29641  4.33291 255 255 255
-2.39465 -1.31287  4.72503 255 255 255
-2.58017 -1.28643  4.65887 255 255 255
-2.21901 -1.32654  4.68166 255 255 255
-2.01831 -1.32003  3.90767 255 255 255
-2.09742 -1.40119  4.84541 255 255 255
-2.63228 -1.26878  4.55758 255 255 255
-2.10454  -1.3349  4.64538 255 255 255
-2.60272 -1.20456  3.72535 255 255 255
-1.78246 -1.42568   4.0664 255 255 255
-2.14469 -1.33114   4.5266 255 255 255
-2.27454 -1.32017  4.55594 255 255 255
-2.82149  -1.2621   4.4592 255 255 255
-2.49567 -1.18224  3.86594 255 255 255
-2.45409 -1.22206  3.31053 255 255 255
-2.64636 -1.19123  4.15337 255 255 255
-2.82756 -1.22048  4.34704 255 255 255
-2.01962 -1.30437  3.88721 255 255 255
-2.23096 -1.28287  4.22566 255 255 255
-2.30909 -1.24905  4.10693 255 255 255
-2.42968 -1.23094  4.27596 255 255 255
-2.54556 -1.16766  3.75179 255 255 255
-2.69415 -1.17714  3.90477 255 255 255
-1.85507 -1.42557  5.03884 255 255 255
-1.84365 -1.31376  3.70394 255 255 255
-2.51166 -1.25941  4.39671 255 255 255
-2.35436  -1.2286  4.02458 255 255 255
-1.82706 -1.38482  3.82557 255 255 255
-2.70772 -1.23266  4.34817 255 255 255
-2.52137    -1.31  4.73059 255 255 255
-2.19892 -1.25775  3.38346 255 255 255
-2.59599 -1.25848  4.35428 255 255 255
-2.60137 -1.18683  4.13325 255 255 255
-2.35534  -1.2358  4.28228 255 255 255
-2.97777 -1.31814  4.45164 255 255 255
-2.48536 -1.21404  4.25948 255 255 255
-2.80921 -1.40774  4.89601 255 255 255
-2.83442 -1.36047  4.74979 255 255 255
-1.73636 -1.47128  4.41762 255 255 255
-2.08555 -1.37118  4.80752 255 255 255
-1.70919 -1.45504  4.03142 255 255 255
 -2.5696 -1.21875  4.24646 255 255 255
-2.57226 -1.27098  4.56447 255 255 255
-2.53748 -1.27064  4.41945 255 255 255
-2.41659 -1.40856  5.05333 255 255 255
-2.00696 -1.35671  4.34774 255 255 255
-2.58089 -1.31222  4.69491 255 255 255
-1.72303 -1.44831  4.18087 255 255 255
-2.92575   -1.348  4.61103 255 255 255
-2.40545 -1.22761  3.68096 255 255 255
 -2.3919 -1.35336  4.98238 255 255 255
-2.62095 -1.24429  4.53887 255 255 255
-2.46255 -1.34081  4.89543 255 255 255
-2.43176 -1.33547  4.75438 255 255 255
-2.37658 -1.26687  4.27392 255 255 255
-2.54243 -1.26191   4.4172 255 255 255
-2.52321 -1.19447  3.69433 255 255 255
-2.55928 -1.17248  4.07319 255 255 255
-2.77542 -1.34504  4.74032 255 255 255
-2.29746 -1.17601  3.81848 255 255 255
-1.99804 -1.29912  3.60791 255 255 255
-2.70358  -1.2404  4.40305 255 255 255
-2.57131 -1.27081  4.48541 255 255 255
-1.13316 -1.57046  4.36932 255 255 255
-2.92773 -1.31371  4.67298 255 255 255
-2.41726 -1.30406  4.63855 255 255 255
-2.76497 -1.23223  4.41211 255 255 255
-2.42607 -1.35181  4.82552 255 255 255
-2.68852 -1.45656  5.06632 255 255 255
-1.66677  -1.4143  3.80626 255 255 255
-2.53267 -1.28061  4.59999 255 255 255
-2.32478 -1.17462  3.24509 255 255 255
 -2.7235 -1.46669   5.0745 255 255 255
-2.40872 -1.16267  3.26936 255 255 255
-2.48312 -1.21713  3.56206 255 255 255
-2.37467 -1.36362  5.00704 255 255 255
-2.02669 -1.39979  4.90544 255 255 255
-2.24614 -1.31239    4.656 255 255 255
-2.60405 -1.17439  3.58622 255 255 255
-2.59347 -1.18982  4.12543 255 255 255
-2.65387 -1.24162  3.55841 255 255 255
-2.41092 -1.20274  3.81559 255 255 255
-2.75962 -1.16977  4.15144 255 255 255
-2.66453  -1.2548  4.57433 255 255 255
-2.73252 -1.46521  5.10151 255 255 255
-2.43986 -1.28467  4.66704 255 255 255
-2.35511  -1.0696  3.09675 255 255 255
-2.55172 -1.27549  4.64152 255 255 255
-2.80889   -1.177  4.18029 255 255 255
-2.49763 -1.27999  4.63257 255 255 255
-2.86219 -1.36199  4.71435 255 255 255
-2.71488 -1.17589  3.95031 255 255 255
-1.84908 -1.43769  4.50246 255 255 255
-2.81204 -1.25212  4.43238 255 255 255
 -2.4782 -1.32763  4.79572 255 255 255
-1.75678 -1.47742  4.45519 255 255 255
-2.28378  -1.3355  4.80415 255 255 255
-2.32801 -1.20152  3.86041 255 255 255
-2.50407 -1.29104  4.48939 255 255 255
-2.93766 -1.25162  4.33814 255 255 255
-2.65023 -1.25002  4.55865 255 255 255
-2.60452 -1.20185  3.58507 255 255 255
-2.60894 -1.26251  4.62339 255 255 255
-2.57422 -1.24393  4.40701 255 255 255
-2.63031 -1.28625  4.54937 255 255 255
-2.39786 -1.17058  3.77338 255 255 255
-1.60119 -1.52894  4.84891 255 255 255
-2.54684 -1.29552  4.71141 255 255 255
 -1.9236 -1.27858  4.00343 255 255 255
-2.63487 -1.26823   4.6176 255 255 255
-2.47242  -1.3058  4.54948 255 255 255
-2.87604 -1.19909  4.16826 255 255 255
-2.19912 -1.38309  4.85754 255 255 255
-2.84147  -1.2136   4.2681 255 255 255
-2.06004 -1.37437  4.73209 255 255 255
-2.47766 -1.33021  4.80888 255 255 255
-1.66218 -1.41923   4.0957 255 255 255
-2.71088 -1.23612  4.46523 255 255 255
-2.50563 -1.33395  4.75998 255 255 255
-2.50026 -1.26005  4.41083 255 255 255
-2.11621 -1.33123  4.05587 255 255 255
-2.46117 -1.25023  4.34017 255 255 255
-2.55619  -1.3407  4.86647 255 255 255
-2.20227 -1.30605  4.29892 255 255 255
-1.82347  -1.4258  3.89235 255 255 255
-2.66544 -1.45553  5.12288 255 255 255
-1.76277 -1.53186  4.50917 255 255 255
-1.86037 -1.41884  4.46698 255 255 255
-2.80446 -1.26485  4.44219 255 255 255
-2.69317 -1.26445  4.54883 255 255 255
-2.28163 -1.19604  3.80461 255 255 255
-2.14169 -1.34346  4.72569 255 255 255
-2.12132 -1.33583  4.49779 255 255 255
-1.98775 -1.32329   3.9974 255 255 255
-2.54746 -1.18643  3.87483 255 255 255
-2.51281 -1.27788   4.6295 255 255 255
-2.14037 -1.23821  3.82687 255 255 255
-1.88022 -1.30071  3.65617 255 255 255
-2.17292 -1.39895  4.98512 255 255 255
-2.78964 -1.39202  4.87555 255 255 255
-2.78593 -1.28532  4.56014 255 255 255
-2.82596 -1.31321  4.60196 255 255 255
-1.46061 -1.61227  4.32417 255 255 255
-2.52655 -1.34499  4.88898 255 255 255
-2.36979 -1.29603  4.60811 255 255 255
-2.08247 -1.33146  3.55298 255 255 255
-2.70554  -1.2907  4.63139 255 255 255
-2.73612 -1.29864  4.62669 255 255 255
-2.56035 -1.23904  4.28925 255 255 255
-2.6327 -1.2407 4.52708 255 255 255
-2.70531 -1.44017  5.05614 255 255 255
-2.74176 -1.21768  4.35671 255 255 255
-2.84786 -1.17923   4.1663 255 255 255
 -2.6519 -1.32195   4.7418 255 255 255
-2.11709  -1.3368  4.52229 255 255 255
-2.52651 -1.26793  4.63982 255 255 255
-2.49352 -1.31532  4.74647 255 255 255
-1.62293 -1.60067  4.52978 255 255 255
-2.47788 -1.34939  4.93798 255 255 255
 -2.5988 -1.40493    4.989 255 255 255
-2.54617 -1.19693  4.00925 255 255 255
-2.35954 -1.38245  5.01872 255 255 255
-2.08118 -1.27902  3.91198 255 255 255
-1.86218 -1.50981  4.90803 255 255 255
-1.90617 -1.49183  5.04375 255 255 255
-1.98158 -1.36388  4.44132 255 255 255
-2.17122 -1.34824  4.60164 255 255 255
-2.60893 -1.27497  4.54029 255 255 255
-2.19526  -1.3313  4.72894 255 255 255
-3.25906  -1.5148  4.74167 255 255 255
-2.58532 -1.26886  4.61887 255 255 255
-1.95072 -1.44365  4.73898 255 255 255
-2.39523 -1.23494  4.07434 255 255 255
-2.00733 -1.29503  3.99847 255 255 255
-2.50633 -1.28844  4.60784 255 255 255
-2.93671 -1.22185  3.86523 255 255 255
-2.86149 -1.24893  3.73745 255 255 255
-2.08699 -1.32652  3.50756 255 255 255
-2.76034  -1.2354   4.4305 255 255 255
-2.27363  -1.3102  4.59925 255 255 255
-2.46405 -1.31221  4.77475 255 255 255
 -2.9098 -1.24751  3.82655 255 255 255
-1.89939 -1.50773   4.8475 255 255 255
-2.09435  -1.3558  4.52398 255 255 255
 -3.1716 -1.49608  4.78329 255 255 255
-1.57264 -1.37173  3.12849 255 255 255
-2.54427 -1.26256  4.66418 255 255 255
 -2.2942 -1.30646  4.68431 255 255 255
-1.93596 -1.38001  4.39971 255 255 255
-1.93946 -1.43927  4.83299 255 255 255
-2.85997 -1.48397  5.06249 255 255 255
-2.11584 -1.28805  3.51116 255 255 255
-2.11269 -1.34835  4.59973 255 255 255
-2.75619 -1.19757  3.90268 255 255 255
-2.05038 -1.37772  4.74288 255 255 255
-2.69512 -1.26531  4.48026 255 255 255
-2.10314 -1.33615  4.72273 255 255 255
-2.60184 -1.25276  4.51026 255 255 255
-2.79728 -1.12494  4.00506 255 255 255
-1.84578 -1.54416  4.93419 255 255 255
-2.04916 -1.24957  3.58932 255 255 255
-3.24663 -1.51894  4.76251 255 255 255
-2.10219 -1.23824  3.80183 255 255 255
-1.98213 -1.36983  4.27942 255 255 255
-2.47502 -1.13852  4.00043 255 255 255
-2.72042 -1.18738  4.17343 255 255 255
 -3.1339 -1.49341  4.82695 255 255 255
-1.74164 -1.34845  3.87513 255 255 255
 -2.1255 -1.39205    4.771 255 255 255
-1.77689 -1.37046  3.80108 255 255 255
-1.79558 -1.32967  3.78802 255 255 255
-2.82672 -1.23936  3.76317 255 255 255
 -2.4019 -1.30788  4.75662 255 255 255
-2.14832 -1.21202  3.87001 255 255 255
-2.15013 -1.41929  5.02181 255 255 255
 -2.8038 -1.19489  3.94812 255 255 255
 -2.4598 -1.18353  3.37834 255 255 255
-2.73992  -1.1395  3.97604 255 255 255
 -2.1053 -1.22362  3.84899 255 255 255
 -1.9978 -1.30475  3.58939 255 255 255
-1.85395 -1.42316  4.35442 255 255 255
-2.32508 -1.21774  4.10432 255 255 255
-2.41361 -1.37849  5.05118 255 255 255
-2.04521 -1.49763  5.10562 255 255 255
-2.81943 -1.14724  4.08683 255 255 255
-2.78327 -1.33258  4.70766 255 255 255
-3.26163 -1.52337  4.78236 255 255 255
-2.73689 -1.24188   4.4383 255 255 255
-2.51934 -1.22464  4.32401 255 255 255
-2.66888 -1.25683  4.45384 255 255 255
 -2.3041 -1.32955  4.72083 255 255 255
-2.91158 -1.24376  3.88196 255 255 255
  -3.277 -1.53985  4.80187 255 255 255
-1.95323 -1.24013  3.16917 255 255 255
-3.12903 -1.43475  4.64572 255 255 255
-3.17831 -1.44324  4.62104 255 255 255
-3.01599 -1.44823   4.8067 255 255 255
-3.00576 -1.38355  4.60955 255 255 255
-1.88046 -1.25524  3.59661 255 255 255
-3.01582 -1.22182   4.0033 255 255 255
-2.81471 -1.21033  4.32881 255 255 255
-2.49522  -1.1974  4.00369 255 255 255
-1.78471 -1.53607  4.66536 255 255 255
-2.54982 -1.31154  4.81056 255 255 255
-2.72854 -1.44271  5.04241 255 255 255
-1.82681 -1.11883  2.88646 255 255 255
-2.66324  -1.1592  3.40653 255 255 255
-2.89049 -1.21145  3.82131 255 255 255
-2.10724 -1.35598  4.72125 255 255 255
 -2.257 -1.3296 4.74533 255 255 255
-2.73928 -1.23382  4.26458 255 255 255
-3.26841 -1.52116  4.74987 255 255 255
-2.15637 -1.26517  3.53489 255 255 255
-2.80451 -1.26725  4.54923 255 255 255
 -1.9756 -1.43476   4.7194 255 255 255
-2.5697 -1.2089 4.18522 255 255 255
-2.61885 -1.24614  4.45465 255 255 255
 -2.8573 -1.23221   3.7685 255 255 255
-2.95306 -1.36014  4.61525 255 255 255
-2.95594 -1.43623  4.87092 255 255 255
-1.79786 -1.40168  4.06031 255 255 255
-2.98844 -1.36214  4.55541 255 255 255
-2.19951  -1.2092  3.95671 255 255 255
-2.79802 -1.24123  3.70554 255 255 255
-3.22684 -1.52148  4.81462 255 255 255
-2.59069 -1.26444  4.58691 255 255 255
-2.13137 -1.13551  3.09299 255 255 255
-2.69921 -1.20905  4.26822 255 255 255
-2.54869 -1.28565   4.6003 255 255 255
-2.59886  -1.2795  4.61087 255 255 255
-3.00339 -1.38586  4.62649 255 255 255
-2.47651 -1.34616   4.9035 255 255 255
-2.98535 -1.43306  4.80323 255 255 255
-2.34403 -1.20621  3.92829 255 255 255
-2.82454 -1.28647   4.5685 255 255 255
-2.39554 -1.37236  5.04753 255 255 255
-2.19285 -1.24487  4.12638 255 255 255
-2.75653  -1.2187  3.74985 255 255 255
-2.32224 -1.32747  4.87461 255 255 255
-2.49682 -1.26716  4.63921 255 255 255
-2.08083 -1.36643  4.66816 255 255 255
-2.72964 -1.18547  4.17047 255 255 255
-3.22391 -1.49281  4.70128 255 255 255
-2.20695 -1.17182  3.11807 255 255 255
-2.41798  -1.1856   3.6349 255 255 255
-3.19149 -1.47921  4.72052 255 255 255
-2.01533 -1.33395  4.15694 255 255 255
-1.94796 -1.22171  3.50857 255 255 255
  -2.579 -1.24572  4.43072 255 255 255
 -2.7683 -1.18646  4.20521 255 255 255
-2.64993 -1.43171   5.0281 255 255 255
-1.96039 -1.39467  4.85262 255 255 255
-2.24482 -1.32817  4.78281 255 255 255
  -1.794 -1.42055  4.44634 255 255 255
-2.24419 -1.36219  4.85031 255 255 255
-3.24414 -1.54055  4.83361 255 255 255
-2.77563 -1.17552  3.98007 255 255 255
-2.74428 -1.22301  4.41137 255 255 255
-1.98494 -1.23382  3.57358 255 255 255
-2.80843  -1.1995  4.20406 255 255 255
-2.82765 -1.19246  3.99816 255 255 255
-2.13179 -1.20374  3.66175 255 255 255
-1.93864 -1.21853  3.11851 255 255 255
-2.69085 -1.22426  3.75262 255 255 255
-2.06197 -1.29268  3.61854 255 255 255
-2.69916 -1.23549  4.42804 255 255 255
-2.71411 -1.32926  4.72217 255 255 255
-1.88723 -1.32487  3.66569 255 255 255
-2.52611 -1.27861  4.63081 255 255 255
-1.95697 -1.22821    3.594 255 255 255
-2.57613 -1.27382  4.55514 255 255 255
-2.75146 -1.23547   4.4488 255 255 255
-2.60345 -1.19527  3.44215 255 255 255
-2.80979 -1.19951  4.23921 255 255 255
-2.31615 -1.27123  4.35096 255 255 255
-2.94275 -1.38594  4.71297 255 255 255
-3.10411 -1.44848  4.71266 255 255 255
 -2.6351 -1.25144  4.42322 255 255 255
-2.94681 -1.28914  4.42846 255 255 255
-2.20279 -1.37714  4.92089 255 255 255
-2.99591 -1.45504  4.86746 255 255 255
-2.59101 -1.30144  4.75664 255 255 255
-2.51969 -1.20008  3.83312 255 255 255
-2.56799 -1.24445  4.38582 255 255 255
-2.40413 -1.34205  4.84404 255 255 255
-3.14494 -1.44521  4.67999 255 255 255
-2.55328 -1.16785  3.87621 255 255 255
-2.04798 -1.24254  3.90932 255 255 255
-2.63249 -1.27822  4.64077 255 255 255
-2.31981 -1.34525  4.78298 255 255 255
-2.66195 -1.24176    4.479 255 255 255
-3.00182 -1.23548  3.95445 255 255 255
-2.06974 -1.29238  4.21769 255 255 255
 -3.1855 -1.44426  4.63052 255 255 255
-2.84802 -1.18848  4.27419 255 255 255
-2.37612 -1.10773  3.72901 255 255 255
-2.02353 -1.53684  5.04212 255 255 255
 -1.9627 -1.40303  4.82115 255 255 255
-2.72733 -1.25202  4.45574 255 255 255
-2.12321 -1.33229  4.75197 255 255 255
-2.69854 -1.21279  3.48411 255 255 255
-3.08077 -1.44273  4.70179 255 255 255
-2.12129 -1.27018  3.55893 255 255 255
-2.09704 -1.21361  3.91545 255 255 255
 -2.9455 -1.40116  4.77999 255 255 255
-1.74682 -1.43957  3.88477 255 255 255
-1.83586 -1.37785  4.07536 255 255 255
-2.61609 -1.25449  4.47891 255 255 255
-2.99177 -1.30845   4.3263 255 255 255
-2.98831 -1.30146    4.334 255 255 255
  -2.226 -1.39745  4.88284 255 255 255
-2.59414 -1.24901  4.41932 255 255 255
-2.58393 -1.24571  4.34473 255 255 255
-3.18737 -1.44444  4.58219 255 255 255
-2.42294 -1.29884  4.66065 255 255 255
-2.56274 -1.23798  4.41983 255 255 255
-2.38854 -1.37143  4.97625 255 255 255
-1.76269 -1.39835  4.59954 255 255 255
-2.79601 -1.21326  4.24268 255 255 255
-2.35519  -1.2235  3.99016 255 255 255
-3.03797 -1.58753   5.3517 255 255 255
-2.15381 -1.43174  4.86521 255 255 255
-2.16721 -1.32999  4.26762 255 255 255
-3.22825 -1.50662  4.74865 255 255 255
-2.37245 -1.32844  4.81937 255 255 255
-2.81888 -1.24781  3.78724 255 255 255
-1.89447 -1.52519  4.83994 255 255 255
 -1.9855 -1.51158  4.82055 255 255 255
 -2.6781 -1.19301  4.32111 255 255 255
-2.39663 -1.32137  4.55437 255 255 255
-2.81148 -1.14555  3.91428 255 255 255
-3.01617 -1.25183  4.03721 255 255 255
-2.35949  -1.4062  5.08263 255 255 255
-2.67777 -1.31436  4.71816 255 255 255
-2.69996 -1.18615  4.21458 255 255 255
-1.96364 -1.31846  4.02065 255 255 255
-2.36496 -1.29389  4.52069 255 255 255
-2.13083 -1.22957  3.99255 255 255 255
-1.67136 -1.38201  4.79522 255 255 255
-2.75154   -1.177  4.23072 255 255 255
-2.83706 -1.38743  4.78959 255 255 255
-2.29399  -1.3903  4.94836 255 255 255
-2.98033 -1.21176  4.20028 255 255 255
-2.07652 -1.36232  4.14829 255 255 255
-2.15926 -1.34803  4.78176 255 255 255
-2.68569 -1.19806  3.89585 255 255 255
-2.33795 -1.28069  4.55212 255 255 255
-1.53549 -1.59519  4.27245 255 255 255
-2.08878 -1.37114   4.8867 255 255 255
-2.92214 -1.32168  4.49826 255 255 255
-2.07242  -1.3286  4.55643 255 255 255
-2.94558 -1.32676  4.48496 255 255 255
-3.31234 -1.55863  4.77105 255 255 255
 -2.8651 -1.39622  4.83994 255 255 255
-2.83292 -1.37051  4.77141 255 255 255
-2.32307 -1.23555  4.05926 255 255 255
-2.29744 -1.39154  4.91877 255 255 255
-2.35717 -1.17869  3.15225 255 255 255
-2.03487  -1.4381  4.88951 255 255 255
-2.83087 -1.29417  4.55448 255 255 255
-2.16563 -1.26184  3.96421 255 255 255
-2.72615 -1.23709  3.72693 255 255 255
-1.65488 -1.44508  4.10186 255 255 255
-2.65068 -1.21157  4.26131 255 255 255
-2.99348  -1.4412  4.82121 255 255 255
-2.90934 -1.26489  3.91549 255 255 255
-3.09656 -1.45869  4.74852 255 255 255
 -2.5772 -1.26642  4.51444 255 255 255
 -2.5852 -1.23721  4.33036 255 255 255
-2.82308 -1.19755  4.24266 255 255 255
-2.35028 -1.33802  4.80771 255 255 255
-3.25311 -1.49615  4.69328 255 255 255
-2.29803 -1.28137  4.60853 255 255 255
-2.03205 -1.33749   4.4882 255 255 255
-3.22177  -1.6352  5.31788 255 255 255
-2.22225 -1.40274  4.88733 255 255 255
-2.61022 -1.27559   4.5742 255 255 255
-2.43954 -1.22199  3.98774 255 255 255
-2.53596 -1.29068  4.46763 255 255 255
-1.98348 -1.34006  4.23604 255 255 255
-2.22446 -1.37309  4.96848 255 255 255
-2.81837 -1.23384  3.95196 255 255 255
-2.84242 -1.31221  4.60543 255 255 255
-2.42653 -1.31945   4.6643 255 255 255
-2.47546 -1.31234  4.54091 255 255 255
-1.98933  -1.3717  4.86724 255 255 255
-2.51511 -1.24767   4.4293 255 255 255
-3.00554   -1.445  4.81482 255 255 255
-2.91058 -1.19468  4.16818 255 255 255
 -2.1007 -1.24561  3.96815 255 255 255
-2.00366 -1.33205   3.9368 255 255 255
-2.40641 -1.29877  4.73271 255 255 255
-2.14301 -1.30567  4.67426 255 255 255
 -3.4622 -1.67565  4.99354 255 255 255
-3.24223 -1.59297  5.04255 255 255 255
-1.97828  -1.4372  5.07994 255 255 255
 -2.4764 -1.30352  4.58154 255 255 255
-3.12154 -1.42205  4.58915 255 255 255
-2.17943 -1.08041  2.91262 255 255 255
-2.48015 -1.28428   4.5983 255 255 255
-2.50806 -1.16166   4.0129 255 255 255
-3.47509 -1.67068  4.97834 255 255 255
-2.50382 -1.27862   4.5213 255 255 255
-1.97785 -1.29272  3.86024 255 255 255
-2.44387 -1.32301  4.83517 255 255 255
-3.42805 -1.68083  5.11464 255 255 255
-2.71816 -1.21339  4.30277 255 255 255
-2.53248 -1.26129  4.32173 255 255 255
-2.71463 -1.22276   4.4008 255 255 255
-2.30901 -1.47718  5.20628 255 255 255
-2.41459 -1.19165   3.9943 255 255 255
-3.26058 -1.52964  4.76175 255 255 255
-3.32344 -1.65569  5.19168 255 255 255
-2.79014  -1.3084   4.6208 255 255 255
-3.31347 -1.52651  4.67169 255 255 255
 -2.3011 -1.28334  4.21728 255 255 255
-2.03835 -1.43918  5.10705 255 255 255
-1.83115  -1.4293  4.04756 255 255 255
-2.69095 -1.28525  4.62715 255 255 255
-2.29441 -1.33998   4.6595 255 255 255
-2.53519 -1.32227    4.812 255 255 255
-2.47605 -1.24498  4.51256 255 255 255
-1.62177 -1.40058  4.48831 255 255 255
-2.13271 -1.25668  3.60984 255 255 255
-1.81672 -1.33623  4.03449 255 255 255
-2.24113 -1.30196  4.40684 255 255 255
-3.28077 -1.51289  4.68992 255 255 255
-2.74005 -1.21559  3.92894 255 255 255
-2.32421 -1.24923  4.17683 255 255 255
-2.58394 -1.22688  3.78777 255 255 255
-2.41599 -1.32301  4.74908 255 255 255
-2.35206 -1.28258  4.56276 255 255 255
-3.33827 -1.56773  4.82231 255 255 255
-2.17192 -1.34303  4.56559 255 255 255
-2.30241 -1.08067  2.96607 255 255 255
-2.59492 -1.29786  3.50722 255 255 255
-2.19861 -1.44693  5.09186 255 255 255
-2.16267 -1.47125  5.05517 255 255 255
-3.45371  -1.6706   5.0271 255 255 255
 -2.5874 -1.19144   3.8494 255 255 255
-3.02424 -1.43052  4.75313 255 255 255
-2.40182 -1.33691  4.96015 255 255 255
-2.30686  -1.3599  4.91396 255 255 255
-2.08436 -1.43752  4.97512 255 255 255
-2.28923  -1.2318  3.99101 255 255 255
-2.73189 -1.16325  4.08269 255 255 255
-1.86063 -1.42831  3.93701 255 255 255
-2.67683 -1.44806   5.0743 255 255 255
-2.85579 -1.17653  4.15294 255 255 255
-1.78064  -1.4171  4.83428 255 255 255
-1.86138 -1.41078  4.16984 255 255 255
 -1.9669 -1.35161   4.8297 255 255 255
-2.14861 -1.15868  2.99364 255 255 255
-1.99682 -1.35164  4.68147 255 255 255
-1.83516 -1.41191  4.75706 255 255 255
-3.38985  -1.6372  4.95837 255 255 255
-3.44263 -1.65347  5.05419 255 255 255
-3.53112  -1.7139   5.0332 255 255 255
-2.57183 -1.33025  4.71517 255 255 255
-2.01118 -1.36941   3.9788 255 255 255
-1.65614 -1.48786  3.90659 255 255 255
 -2.2696 -1.36387  5.03161 255 255 255
-3.47882 -1.69684  5.06201 255 255 255
 -1.8849 -1.41133  4.42117 255 255 255
-2.71267 -1.53614  5.21636 255 255 255
  -2.329 -1.48044  5.13584 255 255 255
-2.29215 -1.33605  4.52429 255 255 255
-2.09284 -1.42358  5.10214 255 255 255
-2.87484 -1.11244  3.94233 255 255 255
-2.05445 -1.33023  4.06299 255 255 255
-2.57213 -1.26734  4.62159 255 255 255
-2.78696 -1.22752  4.37906 255 255 255
  -2.629 -1.22161  4.28031 255 255 255
-2.08092 -1.32432  4.59578 255 255 255
-2.74616 -1.14032  4.01665 255 255 255
-2.55756 -1.31225  4.71906 255 255 255
-2.34928 -1.31699  4.29741 255 255 255
-2.15533 -1.35525  4.21926 255 255 255
-2.38399 -1.29794   4.4792 255 255 255
 -2.4643 -1.30839  4.62053 255 255 255
-2.87139 -1.08737  3.92722 255 255 255
-2.50673 -1.24386  4.36715 255 255 255
-2.52269 -1.40046  5.03704 255 255 255
-2.32806 -1.35348  5.04844 255 255 255
-2.84769 -1.25372  4.42349 255 255 255
-2.54695 -1.16583  3.67468 255 255 255
-2.25356 -1.31957  4.71049 255 255 255
 -2.7261 -1.12516   4.0499 255 255 255
 -2.5843 -1.31908  4.74303 255 255 255
-2.19884 -1.35457  4.93551 255 255 255
-2.46834 -1.29438  4.49115 255 255 255
-2.60049 -1.27918  4.57344 255 255 255
-2.88846 -1.16039  4.18735 255 255 255
  -2.029 -1.32322  3.98305 255 255 255
-2.53606 -1.49099  5.14844 255 255 255
-2.43853 -1.44295  5.06651 255 255 255
-2.56984 -1.31389  4.74108 255 255 255
 -2.5052 -1.32043  4.71325 255 255 255
-2.05425  -1.2866  4.58445 255 255 255
-2.70652 -1.15511  3.78753 255 255 255
-2.41143 -1.23716  4.23689 255 255 255
-2.49104 -1.27632   4.4822 255 255 255
-2.38877 -1.26728  4.19162 255 255 255
-2.75587 -1.13221  4.01757 255 255 255
-2.35761 -1.28218  4.28765 255 255 255
-2.67523 -1.22761  4.41545 255 255 255
-2.43732 -1.40568   4.9489 255 255 255
-2.58555 -1.22324  4.43022 255 255 255
-2.12912 -1.35236  3.76122 255 255 255
-2.85034  -1.3116  4.60173 255 255 255
-2.65042 -1.16075  3.94623 255 255 255
-2.42954 -1.36267  5.02474 255 255 255
-2.20438 -1.30025  4.37996 255 255 255
-2.65705 -1.27126  4.60419 255 255 255
-2.27355 -1.26872   4.3691 255 255 255
-2.43567 -1.32329  4.77112 255 255 255
-2.5428 -1.2215 3.50211 255 255 255
-1.79718 -1.34748  4.73517 255 255 255
 -2.7868 -1.17897  4.25317 255 255 255
-2.49606 -1.17305  3.94662 255 255 255
-1.72329 -1.33575   4.9142 255 255 255
-2.70129 -1.17431   4.1227 255 255 255
-2.30144 -1.33003   4.3067 255 255 255
-2.24702 -1.45129  5.17143 255 255 255
-2.60165 -1.17892  3.65147 255 255 255
 -1.6046 -1.51469  3.92804 255 255 255
-2.58684   -1.359  4.84851 255 255 255
-1.21767 -1.47144  4.17203 255 255 255
 -2.3566 -1.21677  3.84604 255 255 255
 -2.7839 -1.20217  4.36739 255 255 255
-2.15677 -1.35432  4.14669 255 255 255
-2.52991  -1.1929  3.60559 255 255 255
-1.98143 -1.41987  5.02994 255 255 255
-2.75465 -1.11298  4.10778 255 255 255
-2.40461   -1.322  4.73078 255 255 255
-2.49088 -1.21883  4.00403 255 255 255
-2.34719 -1.13401  3.16153 255 255 255
-2.54196 -1.28707  4.49235 255 255 255
 -2.6478 -1.47835  5.06868 255 255 255
 -2.4535 -1.32546  4.62104 255 255 255
-2.55507 -1.28424   4.6263 255 255 255
-2.40022 -1.39124  5.05634 255 255 255
-2.53578 -1.30422  4.61734 255 255 255
-2.67667 -1.23633  4.38985 255 255 255
-1.49989 -1.41712  4.49804 255 255 255
-2.28166 -1.34813  4.32463 255 255 255
 -1.5948 -1.32486  4.68976 255 255 255
-2.44496 -1.31791  4.64991 255 255 255
-2.38007 -1.35119   4.6929 255 255 255
-1.95934 -1.34894   5.0159 255 255 255
-2.28065 -1.39334  4.96003 255 255 255
-1.78253 -1.34326  4.99248 255 255 255
-2.50455 -1.32068  4.73632 255 255 255
-2.40828 -1.30974  4.03894 255 255 255
-2.50911 -1.31729  4.74448 255 255 255
-1.62174 -1.45887  4.29951 255 255 255
-2.43365  -1.3262  4.65193 255 255 255
-2.45689 -1.28679  4.35895 255 255 255
-2.13443 -1.37037   4.2483 255 255 255
-2.3614 -1.4281 5.10623 255 255 255
-2.26255 -1.42237  5.15928 255 255 255
-2.35999 -1.32406  4.51384 255 255 255
 -2.0119 -1.30336  4.45768 255 255 255
-2.06364 -1.34794  4.70255 255 255 255
 -1.8775 -1.34776  4.92496 255 255 255
-2.31952 -1.35441  4.54935 255 255 255
-1.66569 -1.40446  4.36746 255 255 255
 -2.3252 -1.43801  5.14423 255 255 255
-2.78248 -1.13636  4.09716 255 255 255
-2.49891 -1.29678  3.78047 255 255 255
-2.48617 -1.30234  4.61668 255 255 255
-1.80917 -1.37108  4.63533 255 255 255
-1.53287 -1.53622  3.87159 255 255 255
-2.24651 -1.40699   4.9858 255 255 255
-2.28553 -1.35531  4.96585 255 255 255
-2.74967 -1.06781  3.95883 255 255 255
-2.19853 -1.32752  4.66076 255 255 255
-2.57372  -1.1744  3.84846 255 255 255
-2.62162  -1.2768  4.34953 255 255 255
-1.64085 -1.33392  4.86661 255 255 255
-2.45976 -1.26928  4.30495 255 255 255
-2.66489 -1.23474  4.32493 255 255 255
-2.06516  -1.3439  4.74917 255 255 255
-2.54303 -1.26983    4.606 255 255 255
 -2.4496 -1.31369  4.74252 255 255 255
-1.64266  -1.5072   4.1083 255 255 255
-1.71235 -1.42745  4.37614 255 255 255
-2.50055 -1.32377    4.785 255 255 255
-1.59948 -1.31799  4.90102 255 255 255
 -1.9196 -1.32276  4.99129 255 255 255
 -1.9933 -1.34611  4.63612 255 255 255
-1.78977 -1.39147  4.59167 255 255 255
 -2.2317 -1.35263  4.52073 255 255 255
 -2.3522 -1.34196  4.91243 255 255 255
-2.56068 -1.31635   4.7561 255 255 255
-2.41653 -1.31286  4.36341 255 255 255
  -2.374 -1.34475  4.98202 255 255 255
-2.25327 -1.34756  4.64256 255 255 255
-1.91761 -1.34834  4.70821 255 255 255
-1.45572 -1.28048   4.8509 255 255 255
-2.25885  -1.4194  5.21244 255 255 255
-2.35699 -1.34309  4.94888 255 255 255
-2.50663 -1.30699  4.55494 255 255 255
 -2.6545 -1.37367  4.88298 255 255 255
-2.63107 -1.27894  4.50553 255 255 255
 -1.8795 -1.40818  4.45014 255 255 255
-2.52814 -1.29537   4.4367 255 255 255
 -2.2459 -1.34299  4.24836 255 255 255
-2.21709 -1.29259  3.97462 255 255 255
 -2.8581 -1.28637   4.5115 255 255 255
-2.31379 -1.34668   5.0584 255 255 255
-1.29913 -1.43386  4.35106 255 255 255
-2.25592   -1.326  4.52787 255 255 255
-2.76792  -1.1373  4.14954 255 255 255
-2.12664 -1.36545  4.41697 255 255 255
-2.33588 -1.20926  3.86822 255 255 255
-1.92815 -1.32163  4.90224 255 255 255
-2.39695 -1.35187  4.91611 255 255 255
-2.30574 -1.35566  4.98458 255 255 255
-1.73088 -1.29804  4.89738 255 255 255
-2.22394 -1.34297  4.42186 255 255 255
-2.36979 -1.36529   4.6938 255 255 255
 -2.2148 -1.31838  5.12139 255 255 255
-1.52312 -1.25101  4.84234 255 255 255
-2.14854 -1.35407  4.43284 255 255 255
 -2.0471 -1.41891  3.97469 255 255 255
-1.64183 -1.39714  4.46188 255 255 255
-2.15377 -1.32207   5.2239 255 255 255
-2.57667 -1.16123  3.77697 255 255 255
-1.87691 -1.39812  4.50434 255 255 255
-1.85264  -1.2533  5.11652 255 255 255
-1.90293 -1.35871  4.78317 255 255 255
-2.47494 -1.39332  5.13324 255 255 255
-2.72559 -1.24276  4.47962 255 255 255
-2.49568 -1.34792  4.83789 255 255 255
-2.05595 -1.36723   4.4489 255 255 255
-1.92751 -1.33132  4.81851 255 255 255
-2.90914 -1.24061  4.38578 255 255 255
-2.59556 -1.16879  3.79143 255 255 255
-2.57762  -1.1631  3.59656 255 255 255
-2.02107 -1.38838  4.09636 255 255 255
-2.42335 -1.33599  4.67842 255 255 255
-2.44667 -1.32621  4.15452 255 255 255
-1.89978  -1.3455   4.9047 255 255 255
-1.98765  -1.2893  5.11013 255 255 255
-1.59395 -1.25785  4.87818 255 255 255
-2.11254 -1.35236  4.75871 255 255 255
-1.55367  -1.3127  4.86468 255 255 255
 -2.6925 -1.24881  4.50703 255 255 255
-2.61656 -1.27331  4.63061 255 255 255
 -2.0171 -1.26447  3.13341 255 255 255
-2.44684 -1.31693   4.8084 255 255 255
-1.95805 -1.24433  3.05094 255 255 255
-2.35291 -1.26971   3.3713 255 255 255
-2.79416 -1.33849  4.65831 255 255 255
-2.70923 -1.25548  4.49096 255 255 255
-2.25031  -1.3375  4.65492 255 255 255
-2.44825 -1.32572  4.92476 255 255 255
-2.16339 -1.33312  5.18461 255 255 255
-1.73283 -1.64077   3.5378 255 255 255
-2.37136  -1.3299  4.97023 255 255 255
-2.47696 -1.25149   4.2363 255 255 255
-2.58991 -1.29243  4.55281 255 255 255
-2.09475 -1.31256  5.18008 255 255 255
 -2.6675 -1.19908   4.2635 255 255 255
-2.05253 -1.36804  4.68856 255 255 255
-2.85004 -1.28566  4.51621 255 255 255
-2.66736 -1.26688  4.52416 255 255 255
-2.71033 -1.23615  4.41527 255 255 255
-2.22485 -1.32002  5.03854 255 255 255
-1.99473 -1.30724  5.00249 255 255 255
-2.87999 -1.17292  4.21717 255 255 255
-2.43746 -1.12342  3.55492 255 255 255
-2.37186 -1.25635  3.61935 255 255 255
-1.81853 -1.29543  4.99627 255 255 255
-2.26305 -1.34477   4.4845 255 255 255
-2.74719 -1.29411  4.57715 255 255 255
-1.92781 -1.34849  4.77592 255 255 255
-2.21914 -1.32597  4.19198 255 255 255
-2.04363 -1.34591  4.67846 255 255 255
-2.59023 -1.16248  3.56036 255 255 255
-2.28117 -1.34774  4.60194 255 255 255
-2.62308 -1.28383  4.65669 255 255 255
-2.05296 -1.34303  4.76356 255 255 255
 -2.6875 -1.17054  3.97371 255 255 255
-2.46912 -1.31454  4.70693 255 255 255
 -1.9088 -1.34454  4.68349 255 255 255
-2.46979 -1.32475  4.71677 255 255 255
-1.68763 -1.45269  4.34489 255 255 255
-2.19765 -1.34223  4.69478 255 255 255
-2.19156 -1.32244  4.29919 255 255 255
-2.38155 -1.33281  4.83276 255 255 255
-2.47685 -1.17944  3.83854 255 255 255
-2.58844  -1.1091  3.75887 255 255 255
-2.52529 -1.24939  4.38956 255 255 255
-2.44595 -1.30246  4.33709 255 255 255
-2.01535 -1.28835  3.21805 255 255 255
-2.32977 -1.31869  4.52959 255 255 255
-2.46458  -1.3147  4.77538 255 255 255
-2.15925 -1.32773  4.17174 255 255 255
-2.63605 -1.28451  4.57743 255 255 255
-2.51369  -1.3112  4.76714 255 255 255
-2.32955 -1.32759  5.03664 255 255 255
-2.10551 -1.36067  4.22312 255 255 255
-2.17288 -1.33886  4.21698 255 255 255
-2.08085 -1.32977  4.70646 255 255 255
-2.49187 -1.32709  4.75781 255 255 255
-2.02903 -1.34633  4.75025 255 255 255
-1.85667 -1.42967  4.48977 255 255 255
 -2.6818 -1.08953  3.86999 255 255 255
-1.82089 -1.57802  4.23512 255 255 255
-2.62628  -1.2869  4.53108 255 255 255
-2.37434 -1.36005  4.75091 255 255 255
 -2.2706 -1.33625  4.92804 255 255 255
-1.88492 -1.40364  3.30085 255 255 255
-2.11319 -1.35792  4.95634 255 255 255
-2.17178 -1.17185  3.13525 255 255 255
-1.92661 -1.39958  3.78234 255 255 255
-2.02321 -1.36064  4.78925 255 255 255
-2.74725 -1.13233  3.86012 255 255 255
-2.38481  -1.3425  4.77307 255 255 255
-1.83694 -1.28352  5.06155 255 255 255
-2.36912 -1.24199  3.92158 255 255 255
-2.26326 -1.35693  4.82586 255 255 255
