ply
format ascii 1.0
element vertex 719
property float x
property float y
property float z
property uchar red
property uchar green
property uchar blue
end_header
0 0 0 0 255 0
 -0.79278 -0.511981 -0.330719 0 255 0
-0.940477 -0.352494   1.82706 255 255 255
-0.948765 -0.414983   1.82498 255 255 255
-0.958467 -0.367969   1.82194 255 255 255
-0.978321 -0.371794   1.81626 255 255 255
-0.981746 -0.436143   1.81452 255 255 255
-0.974869 -0.424414   1.81749 255 255 255
-0.966463 -0.364701   1.81937 255 255 255
-0.971045 -0.365883   1.81828 255 255 255
-0.968864 -0.362547   1.81892 255 255 255
-0.926636 -0.375542   1.83116 255 255 255
-0.920153 -0.267708   1.82919 255 255 255
-0.955698  -0.28618   1.82161 255 255 255
-0.929513 -0.289445   1.82872 255 255 255
-0.904065 -0.270835   1.83315 255 255 255
-0.931399 -0.293395   1.82893 255 255 255
-0.982247 -0.411902   1.81492 255 255 255
-0.994128  -0.28072   1.81089 255 255 255
-0.956981 -0.266339   1.82024 255 255 255
-0.949326 -0.316803   1.82406 255 255 255
-0.971814 -0.295135   1.81752 255 255 255
 -1.08222 -0.371829   1.78728 255 255 255
-0.968168 -0.260646   1.81631 255 255 255
-0.943534 -0.291849   1.82505 255 255 255
-0.927543 -0.402278   1.83114 255 255 255
 -0.95668 -0.286721   1.82125 255 255 255
-0.984516 -0.338709   1.81415 255 255 255
-0.935908 -0.343131   1.82804 255 255 255
-0.961907 -0.275202   1.81924 255 255 255
-0.967382  -0.25072   1.81633 255 255 255
-0.922155 -0.278351   1.83014 255 255 255
-0.954147 -0.351357   1.82265 255 255 255
 -1.02807 -0.336793   1.80224 255 255 255
-0.976415 -0.261235   1.81427 255 255 255
-0.995689 -0.263459   1.80925 255 255 255
-0.902252 -0.315851   1.83705 255 255 255
-0.962354  -0.28678   1.82015 255 255 255
-0.996114 -0.288177   1.81096 255 255 255
 -1.00917 -0.367096   1.80714 255 255 255
-0.978897 -0.281358   1.81482 255 255 255
-0.907325 -0.325978   1.83479 255 255 255
 -1.02517 -0.396602   1.80216 255 255 255
-0.897349 -0.273022   1.83534 255 255 255
 -1.06915 -0.396762   1.78945 255 255 255
-0.933871 -0.298576    1.8271 255 255 255
-0.982386 -0.365733   1.81511 255 255 255
 -1.02342 -0.275746    1.8021 255 255 255
 -1.04098 -0.372635   1.79812 255 255 255
-0.970874 -0.358058   1.81835 255 255 255
-0.940067 -0.390467   1.82722 255 255 255
 -1.03935 -0.281934   1.79869 255 255 255
 -1.04379 -0.281441   1.79735 255 255 255
   -1.032 -0.337493   1.80068 255 255 255
-0.970182 -0.374518    1.8181 255 255 255
 -1.01419 -0.356409   1.80577 255 255 255
-0.983069 -0.263813   1.81292 255 255 255
-0.944247 -0.296761   1.82525 255 255 255
-0.992553 -0.337788   1.81215 255 255 255
-0.930571 -0.362998   1.82939 255 255 255
-1.04554 -0.38717  1.79673 255 255 255
-0.943556  -0.27512   1.82403 255 255 255
 -1.02554 -0.269743   1.80169 255 255 255
-0.949487 -0.285065   1.82309 255 255 255
 -1.02589 -0.430023   1.80109 255 255 255
 -1.08283 -0.382898   1.78471 255 255 255
 -1.05511 -0.282992    1.7941 255 255 255
-0.933934 -0.287229   1.82803 255 255 255
 -1.07443 -0.364605    1.7885 255 255 255
-0.985325  -0.41634   1.81414 255 255 255
 -1.03082 -0.278579   1.80092 255 255 255
 -0.91373 -0.318142   1.83349 255 255 255
-0.995854 -0.256666   1.80877 255 255 255
-0.943413 -0.345792   1.82595 255 255 255
-0.994163 -0.266343   1.81002 255 255 255
 -1.01902 -0.389425   1.80424 255 255 255
 -1.03005 -0.381212   1.80112 255 255 255
 -1.01476 -0.273669   1.80514 255 255 255
 -1.06567 -0.294324   1.79139 255 255 255
 -0.95196 -0.411325   1.82353 255 255 255
-0.917094 -0.242515   1.82742 255 255 255
-0.942316 -0.281653   1.82429 255 255 255
-0.924345 -0.243534   1.82498 255 255 255
-0.997722 -0.255436   1.80825 255 255 255
  -1.1014 -0.360581   1.78055 255 255 255
 -1.07116 -0.279219   1.78935 255 255 255
-0.938559 -0.287548   1.82504 255 255 255
 -1.09948 -0.371273   1.78085 255 255 255
 -1.07153 -0.391638   1.78893 255 255 255
 -1.02636 -0.287766   1.80212 255 255 255
-0.911059 -0.263408   1.83166 255 255 255
-0.989433 -0.346898   1.81359 255 255 255
 -1.06048 -0.275494   1.79237 255 255 255
-0.952627 -0.415714   1.82332 255 255 255
 -0.98807 -0.257284   1.81095 255 255 255
 -1.09299 -0.307889   1.78353 255 255 255
 -0.97435 -0.444388     1.817 255 255 255
-0.975732 -0.257494   1.81382 255 255 255
 -1.11903 -0.405033   1.77331 255 255 255
-1.08282 -0.28596  1.78683 255 255 255
 -0.94706 -0.297784   1.82457 255 255 255
-1.08432 -0.27936  1.78555 255 255 255
 -1.09534 -0.296298   1.78268 255 255 255
 -1.07632 -0.361397    1.7878 255 255 255
  -1.0357 -0.336872   1.80006 255 255 255
 -1.09915 -0.366806   1.78104 255 255 255
 -1.03369 -0.296215   1.80037 255 255 255
-0.966866   -0.4482   1.81881 255 255 255
 -1.09011 -0.297512   1.78446 255 255 255
-0.933936 -0.380854   1.82867 255 255 255
-0.972877 -0.283735   1.81665 255 255 255
-0.937594 -0.268026   1.82429 255 255 255
  -1.0153 -0.268659   1.80501 255 255 255
-0.976596  -0.36884   1.81654 255 255 255
 -1.04426 -0.321543   1.79733 255 255 255
 -1.06523 -0.346057    1.7914 255 255 255
 -1.04491 -0.434522   1.79624 255 255 255
 -1.03886 -0.468146   1.79615 255 255 255
 -1.05534 -0.362505   1.79444 255 255 255
 -1.00562 -0.323403   1.80866 255 255 255
 -1.04068 -0.466014   1.79599 255 255 255
-0.942123 -0.268825   1.82323 255 255 255
  -1.1161 -0.398709   1.77487 255 255 255
-0.972497 -0.315921   1.81773 255 255 255
-1.06748 -0.35077  1.79056 255 255 255
 -1.09067 -0.379295   1.78321 255 255 255
-0.992293  -0.36289   1.81192 255 255 255
-0.946807 -0.391056   1.82472 255 255 255
 -0.97385 -0.312643   1.81672 255 255 255
 -1.03915 -0.296499   1.79888 255 255 255
-0.999608 -0.288315   1.80954 255 255 255
-0.993051 -0.261764   1.80994 255 255 255
 -1.03241 -0.364674   1.80036 255 255 255
 -1.00869 -0.257313   1.80532 255 255 255
-0.936069 -0.282291   1.82687 255 255 255
-1.09552 -0.28741  1.78385 255 255 255
 -1.08023 -0.273139   1.78772 255 255 255
   -1.036 -0.244136   1.79647 255 255 255
-0.924781 -0.238398   1.82531 255 255 255
-0.911565 -0.286342   1.83339 255 255 255
 -1.00293 -0.278685   1.80855 255 255 255
-0.977237   -0.2664   1.81385 255 255 255
  -1.0517 -0.350895   1.79523 255 255 255
 -1.02317 -0.328831   1.80376 255 255 255
 -0.90163 -0.276568   1.83457 255 255 255
-0.961814 -0.228174   1.81498 255 255 255
 -1.02296 -0.307604   1.80372 255 255 255
 -1.08178 -0.303195   1.78703 255 255 255
 -0.93721 -0.261146   1.82424 255 255 255
 -1.11624 -0.287595   1.77677 255 255 255
-0.948688 -0.279701   1.82341 255 255 255
-0.966704 -0.305939   1.81908 255 255 255
-0.960658 -0.375179    1.8212 255 255 255
 -1.1155 -0.28312  1.77687 255 255 255
 -1.06315 -0.362586   1.79135 255 255 255
 -1.05452 -0.387441   1.79377 255 255 255
 -1.05438 -0.272975   1.79385 255 255 255
  -1.1163 -0.290894   1.77647 255 255 255
 -1.05477 -0.291788   1.79433 255 255 255
 -1.11514 -0.398764   1.77443 255 255 255
 -0.95434 -0.299746   1.82195 255 255 255
 -1.05868 -0.349695   1.79315 255 255 255
 -1.06977 -0.380154   1.78957 255 255 255
-1.11265 -0.26404  1.77725 255 255 255
 -1.08359 -0.303074   1.78635 255 255 255
-1.11948 -0.28499   1.7759 255 255 255
-0.959101   -0.2319   1.81624 255 255 255
-0.963585  -0.29135   1.82018 255 255 255
 -1.00307 -0.446244   1.80814 255 255 255
-1.10116 -0.27532  1.78117 255 255 255
 -1.12378 -0.277983   1.77453 255 255 255
 -1.02798 -0.363649   1.80131 255 255 255
 -1.08831 -0.415137   1.78303 255 255 255
-0.937145 -0.395687    1.8275 255 255 255
 -1.02131 -0.311469   1.80369 255 255 255
-0.965752 -0.413722   1.81946 255 255 255
-0.930366 -0.302098    1.8289 255 255 255
 -1.01323 -0.446239   1.80506 255 255 255
  -1.0331 -0.272594   1.80011 255 255 255
-1.01075 -0.27166  1.80666 255 255 255
 -1.09613 -0.307379    1.7829 255 255 255
-0.984351 -0.281688   1.81341 255 255 255
 -1.03714 -0.267539   1.79829 255 255 255
 -1.06493 -0.359863   1.79172 255 255 255
 -1.08098 -0.277393   1.78722 255 255 255
 -1.05516 -0.350781   1.79415 255 255 255
 -1.06819 -0.377304   1.78953 255 255 255
-0.971224 -0.328278   1.81848 255 255 255
 -1.12474 -0.288337    1.7742 255 255 255
-0.996396 -0.364374   1.81134 255 255 255
 -1.05019 -0.252735   1.79364 255 255 255
-0.941568 -0.304527   1.82641 255 255 255
 -1.0942 -0.21352  1.77792 255 255 255
 -1.02633 -0.280004   1.80239 255 255 255
 -1.11569 -0.263619   1.77644 255 255 255
 -1.01119 -0.372741   1.80643 255 255 255
 -1.02094 -0.392245   1.80395 255 255 255
 -1.02557 -0.393716   1.80274 255 255 255
  -1.1089 -0.274182   1.77828 255 255 255
-0.908081  -0.26265   1.83164 255 255 255
 -0.96424 -0.381211   1.81999 255 255 255
-0.935737 -0.268985   1.82511 255 255 255
 -1.03113 -0.281374   1.80023 255 255 255
-0.980416 -0.297238   1.81491 255 255 255
 -1.00367 -0.273625   1.80807 255 255 255
-0.955133  -0.35397    1.8234 255 255 255
 -1.05123 -0.327745   1.79512 255 255 255
 -1.06276 -0.345547   1.79248 255 255 255
-0.983692 -0.344244   1.81447 255 255 255
 -1.11688 -0.273097   1.77672 255 255 255
 -1.08859 -0.298473   1.78488 255 255 255
-0.974515 -0.409111   1.81634 255 255 255
-0.964748 -0.434873   1.81938 255 255 255
 -1.01394 -0.334744    1.8057 255 255 255
 -1.01183 -0.366977   1.80665 255 255 255
 -1.03501 -0.367982   1.79971 255 255 255
-0.932823 -0.338517   1.82917 255 255 255
 -1.08048 -0.385411   1.78608 255 255 255
-0.957905 -0.355065   1.82134 255 255 255
-0.978076 -0.251088   1.81315 255 255 255
  -1.0133 -0.340321   1.80601 255 255 255
-0.978745 -0.315199   1.81599 255 255 255
 -1.02319 -0.318245   1.80357 255 255 255
  -1.1053 -0.341699   1.77934 255 255 255
 -1.11339 -0.271621   1.77711 255 255 255
 -1.06728 -0.291471   1.79105 255 255 255
 -1.12208 -0.406623   1.77231 255 255 255
 -1.14715 -0.320719   1.76713 255 255 255
 -1.03903 -0.302946   1.79898 255 255 255
-1.08421 -0.27591  1.78621 255 255 255
 -1.02116 -0.305711   1.80433 255 255 255
 -1.07725 -0.251685   1.78631 255 255 255
 -1.03774 -0.272841   1.79891 255 255 255
 -1.00131 -0.286642   1.80922 255 255 255
 -1.06933 -0.297097   1.79018 255 255 255
 -1.01764 -0.335295   1.80522 255 255 255
-0.947923 -0.410374   1.82529 255 255 255
-0.93571 -0.28864  1.82734 255 255 255
  -1.0513 -0.347219    1.7964 255 255 255
 -1.10492 -0.276972   1.78019 255 255 255
-0.928073 -0.276199   1.82755 255 255 255
-0.926174  -0.27785   1.82866 255 255 255
 -1.07337 -0.272446   1.78934 255 255 255
 -1.04379 -0.423901   1.79571 255 255 255
 -1.09715 -0.342333   1.78207 255 255 255
 -1.06937 -0.323723   1.79018 255 255 255
 -1.10949 -0.298249    1.7788 255 255 255
 -1.10119 -0.288751   1.78106 255 255 255
-0.942129 -0.392173   1.82692 255 255 255
  -1.0894 -0.286536   1.78459 255 255 255
-1.12358 -0.39614   1.7723 255 255 255
 -1.10335 -0.268462   1.78025 255 255 255
 -1.12148 -0.333058   1.77479 255 255 255
 -1.15211 -0.350559   1.76463 255 255 255
-0.994357 -0.426161   1.81075 255 255 255
 -1.06431 -0.297104   1.79158 255 255 255
 -1.01597 -0.228361    1.8006 255 255 255
 -1.01528 -0.471722   1.80369 255 255 255
 -1.06647 -0.322764   1.79123 255 255 255
-0.996556 -0.339952   1.81174 255 255 255
  -1.0826 -0.330145   1.78642 255 255 255
 -1.03766 -0.334648   1.79933 255 255 255
 -1.03569 -0.376149    1.7997 255 255 255
-0.997925 -0.371484   1.81044 255 255 255
  -1.0608 -0.279955   1.79238 255 255 255
 -1.18146 -0.391458    1.7541 255 255 255
-1.01724 -0.26549  1.80329 255 255 255
-0.940002 -0.280609   1.82539 255 255 255
 -1.10358 -0.290346   1.78077 255 255 255
-0.996054 -0.233049   1.80659 255 255 255
-0.973893 -0.224328   1.81145 255 255 255
 -1.07732 -0.359212    1.7882 255 255 255
 -1.10273 -0.363475   1.77982 255 255 255
 -1.01379 -0.363762   1.80602 255 255 255
 -1.13677 -0.332632   1.76992 255 255 255
-0.950279 -0.376845   1.82426 255 255 255
-0.953875 -0.430781   1.82293 255 255 255
-0.900752 -0.238362   1.83097 255 255 255
-0.937933   -0.3842    1.8273 255 255 255
-0.994332 -0.381695   1.81125 255 255 255
 -1.09806 -0.272945   1.78206 255 255 255
-0.998104  -0.20575   1.80219 255 255 255
-0.961161 -0.289255   1.82013 255 255 255
 -1.01218 -0.468744   1.80407 255 255 255
 -1.11689 -0.384894   1.77476 255 255 255
-0.915844 -0.346931   1.83368 255 255 255
 -1.03347 -0.308906   1.80069 255 255 255
 -1.05983 -0.267287    1.7925 255 255 255
 -1.05062 -0.280611   1.79554 255 255 255
 -1.10402 -0.256043   1.77931 255 255 255
 -1.10066 -0.264674   1.78085 255 255 255
-0.933232 -0.281067   1.82713 255 255 255
 -1.09633 -0.285432   1.78271 255 255 255
 -1.11391 -0.390198   1.77521 255 255 255
 -1.04378 -0.386148   1.79666 255 255 255
 -1.02564 -0.385927   1.80265 255 255 255
 -1.09221 -0.285354   1.78357 255 255 255
-1.12743 -0.35233  1.77272 255 255 255
 -1.02548 -0.285676    1.8027 255 255 255
 -1.14405 -0.318435   1.76807 255 255 255
 -1.07364 -0.326165   1.78886 255 255 255
-0.995511 -0.276128   1.81045 255 255 255
-0.949064 -0.259058    1.8213 255 255 255
-0.996139 -0.279909   1.81079 255 255 255
-0.946001 -0.434903   1.82538 255 255 255
-0.957992 -0.289966   1.82067 255 255 255
-0.932981 -0.206942   1.81891 255 255 255
 -1.18429 -0.361231   1.75329 255 255 255
 -1.06839 -0.276997    1.7902 255 255 255
 -1.1585 -0.34221  1.76299 255 255 255
-1.07402 -0.28574  1.78931 255 255 255
-1.05182 -0.32061  1.79575 255 255 255
 -1.03601 -0.366073   1.79928 255 255 255
 -1.09925 -0.339571   1.78176 255 255 255
-0.996332 -0.259485   1.80969 255 255 255
 -1.01816 -0.358938   1.80569 255 255 255
-0.993135 -0.287045   1.81147 255 255 255
 -1.08546 -0.294639   1.78597 255 255 255
 -1.04896 -0.288755   1.79589 255 255 255
-0.980696 -0.226092   1.80978 255 255 255
-0.948216 -0.260776    1.8213 255 255 255
-0.971381 -0.263559   1.81591 255 255 255
  -1.1268 -0.280481    1.7736 255 255 255
-0.897421 -0.272477   1.83487 255 255 255
  -1.0039 -0.258529   1.80702 255 255 255
-0.945033 -0.369517   1.82552 255 255 255
-0.944569 -0.236518   1.82029 255 255 255
 -1.06287 -0.211674   1.78632 255 255 255
-0.998683 -0.285704   1.80988 255 255 255
 -1.10457 -0.272161      1.78 255 255 255
-1.13256 -0.27836  1.77251 255 255 255
-0.986873  -0.28433   1.81296 255 255 255
-0.997903 -0.304419   1.81039 255 255 255
-1.01216 -0.27075  1.80567 255 255 255
 -1.02604 -0.282792   1.80269 255 255 255
-1.08553 -0.31321  1.78607 255 255 255
-0.968259 -0.327075    1.8188 255 255 255
-0.923904 -0.379874    1.8318 255 255 255
 -1.05403 -0.365229   1.79424 255 255 255
 -1.02701 -0.331306   1.80303 255 255 255
-0.927544 -0.364106   1.83069 255 255 255
  -1.0368 -0.282771   1.79896 255 255 255
-0.998026 -0.280867      1.81 255 255 255
 -1.01719 -0.449103   1.80314 255 255 255
 -1.18619 -0.359146    1.7538 255 255 255
-0.947371 -0.288281   1.82398 255 255 255
 -1.18494 -0.380962   1.75319 255 255 255
-1.00483 -0.33237  1.80912 255 255 255
 -1.03718 -0.400151   1.79876 255 255 255
 -1.01945 -0.382337   1.80435 255 255 255
  -1.0023 -0.379847   1.80983 255 255 255
 -1.09859 -0.276338   1.78218 255 255 255
-0.970644 -0.232383   1.81299 255 255 255
 -1.09465 -0.261996   1.78259 255 255 255
-0.932808 -0.258547   1.82536 255 255 255
 -1.02413 -0.333064   1.80281 255 255 255
-0.970056 -0.218097   1.81162 255 255 255
 -1.07211 -0.360093   1.78879 255 255 255
-0.968425 -0.420806   1.81809 255 255 255
 -1.11667 -0.407226   1.77447 255 255 255
 -1.08755 -0.394973   1.78319 255 255 255
-1.10046 -0.26206  1.78071 255 255 255
-0.972157 -0.362789   1.81774 255 255 255
 -1.03331 -0.301065    1.8002 255 255 255
  -1.1636 -0.270405   1.76244 255 255 255
 -1.09646 -0.347281   1.78227 255 255 255
 -1.15834 -0.346458   1.76277 255 255 255
-0.921892 -0.276111   1.82885 255 255 255
 -1.13828 -0.366464   1.76835 255 255 255
 -1.06169 -0.478057   1.78874 255 255 255
 -1.06099 -0.335147   1.79266 255 255 255
 -1.18764 -0.385503   1.75242 255 255 255
 -1.09979 -0.267694   1.78131 255 255 255
  -1.0356 -0.304873   1.79979 255 255 255
 -1.09118 -0.274428   1.78419 255 255 255
 -1.02761 -0.424726   1.80169 255 255 255
 -1.16006 -0.280446   1.76422 255 255 255
 -1.11681 -0.300258   1.77618 255 255 255
-0.982925  -0.40532   1.81441 255 255 255
 -1.17246 -0.281866   1.76024 255 255 255
-1.05597 -0.28983  1.79428 255 255 255
-0.954688 -0.260633   1.81963 255 255 255
 -1.18628 -0.346453   1.75401 255 255 255
 -1.16486 -0.308477   1.76206 255 255 255
 -1.17592 -0.305819   1.75875 255 255 255
 -1.12865 -0.252862   1.77166 255 255 255
 -1.17933 -0.310784   1.75742 255 255 255
 -1.17595 -0.266103   1.75809 255 255 255
    -1.17 -0.292141   1.76102 255 255 255
-0.963835 -0.255751   1.81651 255 255 255
-0.957392 -0.255407   1.81872 255 255 255
 -1.09101 -0.333872   1.78407 255 255 255
 -1.17481 -0.282464   1.75922 255 255 255
 -1.16604 -0.282084   1.76227 255 255 255
 -1.18466 -0.306336   1.75594 255 255 255
 -1.18202 -0.296611    1.7569 255 255 255
 -1.16123 -0.300202   1.76375 255 255 255
 -1.15154 -0.276472   1.76642 255 255 255
 -1.14035 -0.275381    1.7696 255 255 255
  -1.0362 -0.285757   1.79931 255 255 255
 -1.04548 -0.327084   1.79728 255 255 255
 -1.06356 -0.335098   1.79172 255 255 255
 -1.01064 -0.339036   1.80729 255 255 255
-0.933714 -0.273173   1.82643 255 255 255
 -1.01247 -0.247833   1.80347 255 255 255
 -0.98016 -0.214355   1.80868 255 255 255
-0.892361 -0.278445   1.83764 255 255 255
 -1.08509 -0.269229   1.78547 255 255 255
 -1.08262 -0.280458   1.78634 255 255 255
 -1.02756 -0.365891   1.80176 255 255 255
-0.928208 -0.323707   1.83023 255 255 255
 -1.12311 -0.288978   1.77496 255 255 255
-0.949431 -0.365139   1.82563 255 255 255
 -1.02738 -0.394598   1.80151 255 255 255
 -1.07925 -0.259977    1.7862 255 255 255
-0.981661 -0.215452   1.80813 255 255 255
 -1.02252 -0.323421   1.80375 255 255 255
-1.02739 -0.31362  1.80255 255 255 255
  -1.102 -0.29483  1.78134 255 255 255
 -1.03772 -0.275773   1.79863 255 255 255
  -1.1445 -0.305653   1.76853 255 255 255
 -1.13914 -0.277424   1.77046 255 255 255
 -1.15363 -0.279895    1.7659 255 255 255
 -1.18277 -0.281133   1.75703 255 255 255
-0.886286 -0.235673   1.83297 255 255 255
  -1.0716 -0.327045   1.78987 255 255 255
-0.906823 -0.245182   1.83066 255 255 255
 -1.16949 -0.271154   1.76053 255 255 255
-0.978711 -0.269898   1.81466 255 255 255
 -1.09202 -0.303127   1.78392 255 255 255
-0.920632 -0.214744   1.82291 255 255 255
 -0.90511 -0.237245   1.82899 255 255 255
 -1.18533 -0.310802   1.75521 255 255 255
 -1.12287 -0.271212   1.77458 255 255 255
 -0.95625 -0.255821    1.8195 255 255 255
-0.876436 -0.230081   1.83435 255 255 255
 -1.1326 -0.36694  1.77031 255 255 255
-0.868695  -0.22397   1.83529 255 255 255
 -1.03176 -0.306921   1.80109 255 255 255
 -1.08171 -0.448741   1.78349 255 255 255
-0.911544  -0.21296   1.82426 255 255 255
 -1.10827 -0.364286   1.77792 255 255 255
 -0.96466 -0.374226    1.8197 255 255 255
 -1.03086 -0.362846   1.80097 255 255 255
 -1.00884 -0.346445   1.80752 255 255 255
 -1.06893 -0.305234   1.79074 255 255 255
 -1.04243 -0.305066   1.79814 255 255 255
-0.953208 -0.368982   1.82412 255 255 255
 -1.06991 -0.285971   1.79011 255 255 255
-0.935691 -0.349369   1.82799 255 255 255
 -1.19067 -0.283514   1.75447 255 255 255
-0.945925 -0.377827   1.82541 255 255 255
-0.880113 -0.251016   1.83653 255 255 255
-1.11986 -0.40058  1.77383 255 255 255
 -1.04046 -0.283863   1.79808 255 255 255
 -1.09144 -0.354916   1.78337 255 255 255
 -1.06683 -0.286785   1.79121 255 255 255
-0.998607 -0.368517   1.81015 255 255 255
-1.03794 -0.38004  1.79912 255 255 255
 -1.04616 -0.273484   1.79629 255 255 255
 -1.07046 -0.202626   1.78313 255 255 255
-1.14078 -0.31409  1.76873 255 255 255
 -1.04747 -0.276865    1.7965 255 255 255
 -1.01815 -0.328745   1.80501 255 255 255
-0.909071 -0.272253   1.83206 255 255 255
-0.993586 -0.207758     1.804 255 255 255
-0.943545 -0.266318   1.82311 255 255 255
 -1.18928 -0.292466    1.7548 255 255 255
 -1.16841 -0.280241   1.76125 255 255 255
 -1.02978 -0.359986    1.8015 255 255 255
-0.964388 -0.370351   1.82026 255 255 255
  -1.0318 -0.397326   1.80053 255 255 255
 -1.05226 -0.211632   1.78893 255 255 255
 -1.01759 -0.291293   1.80495 255 255 255
  -1.0093 -0.302477   1.80661 255 255 255
-0.927864 -0.244885   1.82488 255 255 255
-1.04043 -0.29523  1.79846 255 255 255
 -1.02266 -0.333065   1.80365 255 255 255
 -1.01172 -0.267318   1.80559 255 255 255
 -0.98567 -0.295502   1.81324 255 255 255
 -1.13764 -0.288238   1.76987 255 255 255
-0.946901 -0.291213    1.8244 255 255 255
 -1.01284 -0.313117   1.80611 255 255 255
 -1.06986 -0.274143   1.79001 255 255 255
 -1.04595 -0.303055   1.79691 255 255 255
 -1.17728 -0.281089   1.75878 255 255 255
 -1.06507 -0.387172   1.79064 255 255 255
-1.19576 -0.35584  1.75041 255 255 255
 -0.92824 -0.281454   1.82929 255 255 255
-0.966716 -0.255589   1.81657 255 255 255
-0.940105 -0.232276   1.82057 255 255 255
 -1.18663 -0.387903   1.75248 255 255 255
 -1.05875 -0.322828   1.79357 255 255 255
 -1.13142 -0.275143   1.77253 255 255 255
 -1.18702 -0.381168   1.75266 255 255 255
 -1.01526 -0.287584   1.80536 255 255 255
-0.960351 -0.369517   1.82104 255 255 255
 -1.05042 -0.461697   1.79272 255 255 255
-0.996444 -0.285588   1.81063 255 255 255
 -1.01846 -0.299406   1.80511 255 255 255
-0.936911  -0.39188   1.82831 255 255 255
 -1.04171 -0.389676   1.79828 255 255 255
-1.02413 -0.28929  1.80307 255 255 255
 -1.09852 -0.205839   1.77616 255 255 255
-1.19871 -0.29178   1.7519 255 255 255
 -1.00109 -0.245602   1.80672 255 255 255
 -1.01954 -0.295882   1.80408 255 255 255
 -1.19684 -0.300285   1.75125 255 255 255
 -1.08563 -0.244248   1.78352 255 255 255
 -1.06821 -0.329527   1.79057 255 255 255
 -1.08427 -0.358265   1.78562 255 255 255
 -1.16364 -0.298762   1.76257 255 255 255
   -1.195 -0.301909   1.75208 255 255 255
 -1.08561 -0.282876   1.78561 255 255 255
 -1.02262 -0.389857   1.80316 255 255 255
 -0.96639 -0.381712     1.819 255 255 255
 -1.19656 -0.350276   1.75063 255 255 255
  -1.1054 -0.204215   1.77403 255 255 255
-0.998715 -0.340846   1.81066 255 255 255
 -1.00749 -0.291242   1.80784 255 255 255
 -1.12705 -0.258877   1.77231 255 255 255
 -1.01974 -0.338853   1.80442 255 255 255
 -1.08083 -0.210345    1.7812 255 255 255
-0.898011 -0.278551   1.83596 255 255 255
-0.933305 -0.292418   1.82786 255 255 255
  -0.9688 -0.224599   1.81257 255 255 255
 -1.07565 -0.377119   1.78718 255 255 255
 -1.0836 -0.34087  1.78589 255 255 255
 -0.92684 -0.272615   1.82791 255 255 255
 -1.20055 -0.328246   1.75022 255 255 255
 -1.08965 -0.293875   1.78485 255 255 255
-1.01491 -0.33011  1.80602 255 255 255
 -1.11704 -0.404499   1.77412 255 255 255
 -1.05976 -0.309864   1.79356 255 255 255
 -1.08767 -0.207541   1.77927 255 255 255
 -1.20014 -0.297135   1.75098 255 255 255
  -1.0444 -0.285207   1.79678 255 255 255
 -1.06479 -0.357268   1.79128 255 255 255
-0.976147 -0.426783   1.81625 255 255 255
 -1.02012 -0.372804   1.80389 255 255 255
  -1.1075 -0.200398   1.77341 255 255 255
-0.926659 -0.287267    1.8299 255 255 255
 -1.17892 -0.308372   1.75782 255 255 255
-1.07884 -0.41574  1.78586 255 255 255
-1.15593 -0.28373  1.76536 255 255 255
 -1.14038 -0.286226   1.76988 255 255 255
 -1.09564 -0.207377   1.77744 255 255 255
 -1.10492 -0.287738   1.78054 255 255 255
 -1.01321 -0.293882   1.80654 255 255 255
 -1.02368 -0.281484   1.80289 255 255 255
 -1.08112 -0.287721   1.78717 255 255 255
 -1.04934 -0.297425   1.79581 255 255 255
-0.963626 -0.281297   1.81947 255 255 255
 -1.08649 -0.299392   1.78635 255 255 255
 -1.03317 -0.314174   1.80052 255 255 255
 -1.20279 -0.331697   1.74904 255 255 255
 -1.00285 -0.372251   1.80932 255 255 255
 -1.03833 -0.315162   1.79959 255 255 255
 -1.16586 -0.268559    1.7618 255 255 255
-1.1971 -0.3334 1.75114 255 255 255
 -1.08892 -0.361578   1.78379 255 255 255
 -1.04598 -0.416689    1.7952 255 255 255
 -1.05006 -0.271022   1.79514 255 255 255
 -1.1372 -0.27541  1.77067 255 255 255
 -1.07874 -0.281056   1.78772 255 255 255
  -1.0831 -0.247367   1.78435 255 255 255
 -1.11104 -0.195092   1.77193 255 255 255
-0.954088 -0.412294   1.82263 255 255 255
 -1.0217 -0.28081  1.80371 255 255 255
 -1.16376 -0.304211   1.76221 255 255 255
 -1.06535 -0.278684   1.79157 255 255 255
-0.932775 -0.289845   1.82775 255 255 255
-0.963463 -0.260342   1.81764 255 255 255
 -1.08433 -0.326677   1.78633 255 255 255
 -1.05375 -0.374787   1.79401 255 255 255
 -1.14864 -0.313291   1.76627 255 255 255
-0.992896 -0.468241   1.81032 255 255 255
 -1.06618 -0.302216   1.79123 255 255 255
-0.963308 -0.277717   1.81885 255 255 255
-0.979452  -0.25809   1.81363 255 255 255
  -1.0512 -0.365741   1.79516 255 255 255
-1.03407  -0.2852  1.80007 255 255 255
 -1.12538 -0.357638   1.77319 255 255 255
  -1.0345 -0.275349    1.7994 255 255 255
 -1.00144 -0.281884   1.80934 255 255 255
 -1.08544 -0.305738    1.7859 255 255 255
-0.996604 -0.203294   1.80267 255 255 255
-0.957438 -0.363613   1.82242 255 255 255
 -1.02336 -0.376158   1.80305 255 255 255
 -1.16398 -0.362828   1.76055 255 255 255
 -1.13305 -0.315183    1.7722 255 255 255
 -1.02822 -0.279489   1.80132 255 255 255
 -1.02676 -0.277107   1.80192 255 255 255
-0.941409 -0.349905   1.82629 255 255 255
 -1.07592 -0.311681   1.78869 255 255 255
 -1.19767 -0.363031   1.74971 255 255 255
  -1.1844 -0.314687   1.75546 255 255 255
 -1.09452 -0.240397   1.78011 255 255 255
 -1.20117 -0.287727   1.75075 255 255 255
-0.995456 -0.458864    1.8103 255 255 255
 -1.07436 -0.201333   1.78215 255 255 255
 -1.03965 -0.211911   1.79214 255 255 255
 -1.08996 -0.272106   1.78442 255 255 255
 -1.17666 -0.300002   1.75833 255 255 255
 -1.13164 -0.268313    1.7722 255 255 255
 -1.18314 -0.403264   1.75271 255 255 255
-0.954565 -0.263068   1.82058 255 255 255
 -1.04834 -0.367073   1.79615 255 255 255
-0.936392 -0.354556   1.82835 255 255 255
-0.912091 -0.268481   1.83129 255 255 255
 -1.02232 -0.278233    1.8031 255 255 255
-0.951073 -0.350957   1.82418 255 255 255
 -1.07118 -0.292863   1.78982 255 255 255
-1.16388 -0.29403  1.76234 255 255 255
-0.947319 -0.263444   1.82146 255 255 255
  -1.0619 -0.390995   1.79181 255 255 255
-1.15663 -0.40904  1.76113 255 255 255
 -1.11384 -0.304629   1.77726 255 255 255
 -1.17091 -0.289766   1.76009 255 255 255
 -1.08342 -0.314749   1.78655 255 255 255
-0.934947 -0.264926   1.82517 255 255 255
 -1.19555 -0.317814   1.75218 255 255 255
 -1.11257 -0.386097   1.77576 255 255 255
-0.906458 -0.276019   1.83345 255 255 255
-0.986946 -0.336826   1.81413 255 255 255
 -1.11251 -0.388937   1.77622 255 255 255
-0.959076 -0.267125   1.82002 255 255 255
 -1.16833 -0.348096   1.76009 255 255 255
-1.19935 -0.27298  1.75107 255 255 255
 -1.05221 -0.286364   1.79514 255 255 255
 -1.07043 -0.209334   1.78401 255 255 255
-0.939194 -0.397171   1.82701 255 255 255
 -1.07455 -0.334873    1.7885 255 255 255
 -1.20349 -0.300602   1.74956 255 255 255
 -1.20504 -0.339434   1.74765 255 255 255
 -1.03684 -0.291248    1.7994 255 255 255
  -1.0253 -0.378379   1.80286 255 255 255
-0.866793 -0.232327   1.83655 255 255 255
 -1.11145 -0.337896   1.77799 255 255 255
 -1.10869 -0.313999   1.77866 255 255 255
-0.944676 -0.286624   1.82462 255 255 255
 -1.16716 -0.278101   1.76172 255 255 255
 -1.01543 -0.312598   1.80565 255 255 255
 -1.03448 -0.458021   1.79813 255 255 255
 -1.15592 -0.276542   1.76508 255 255 255
 -1.11256 -0.383849   1.77627 255 255 255
 -1.18847 -0.306028    1.7545 255 255 255
 -1.09076 -0.435019   1.78127 255 255 255
-0.963582 -0.445403   1.81961 255 255 255
-0.950609 -0.333755   1.82403 255 255 255
 -1.08483 -0.379002   1.78517 255 255 255
 -1.20022 -0.306501   1.75083 255 255 255
 -1.02358 -0.209854   1.79739 255 255 255
 -1.17698 -0.353387   1.75671 255 255 255
 -1.09494 -0.369729   1.78191 255 255 255
 -1.13071 -0.397195   1.77043 255 255 255
-0.983943 -0.292875    1.8139 255 255 255
 -1.13558 -0.335459   1.77072 255 255 255
-1.17758 -0.28374  1.75826 255 255 255
 -1.04773 -0.283146   1.79613 255 255 255
-0.986851 -0.269425   1.81195 255 255 255
 -1.10276 -0.282775    1.7802 255 255 255
 -1.00248 -0.352937   1.80926 255 255 255
  -1.0356 -0.299363   1.79971 255 255 255
 -1.00531 -0.174171   1.79732 255 255 255
-0.928552 -0.265338   1.82671 255 255 255
-0.938831 -0.164498   1.81139 255 255 255
  -1.1428 -0.382812    1.7664 255 255 255
 -1.02082 -0.273296   1.80361 255 255 255
 -1.04874 -0.375617   1.79645 255 255 255
 -0.91927 -0.209232   1.82275 255 255 255
 -1.09228 -0.209083   1.77749 255 255 255
  -1.1391 -0.320431   1.76921 255 255 255
-0.994116 -0.165233   1.79842 255 255 255
-1.18926  -0.3209   1.7539 255 255 255
 -1.19849 -0.314417   1.75121 255 255 255
-0.949155 -0.361656   1.82478 255 255 255
 -1.02568 -0.291248   1.80225 255 255 255
 -1.16219 -0.251434   1.76126 255 255 255
 -1.15031 -0.293379     1.767 255 255 255
 -1.04138 -0.291376    1.7981 255 255 255
 -1.12558 -0.316685   1.77433 255 255 255
 -1.14141 -0.266053   1.76827 255 255 255
 -1.18502 -0.296886   1.75593 255 255 255
 -1.06103 -0.289191   1.79296 255 255 255
 -1.08853 -0.284058   1.78464 255 255 255
-0.913863 -0.140267   1.81377 255 255 255
 -1.04413 -0.295661   1.79728 255 255 255
 -1.10687 -0.253196   1.77801 255 255 255
 -1.20666 -0.281764     1.749 255 255 255
 -1.05646 -0.273696   1.79326 255 255 255
-0.955563 -0.176811   1.80974 255 255 255
 -1.11675 -0.293625   1.77656 255 255 255
 -1.04711 -0.309684   1.79665 255 255 255
 -1.05992 -0.191408   1.78501 255 255 255
 -1.00152 -0.288908   1.80832 255 255 255
-0.925407 -0.209467   1.82066 255 255 255
-0.918043 -0.289175   1.83162 255 255 255
-0.901379 -0.226896   1.82935 255 255 255
 -1.06614 -0.305515   1.79133 255 255 255
 -1.17855 -0.406441   1.75447 255 255 255
 -1.18745 -0.334323   1.75398 255 255 255
 -1.12164 -0.255961   1.77404 255 255 255
 -1.19179 -0.241438   1.75233 255 255 255
 -1.15762 -0.282227   1.76461 255 255 255
 -0.99857 -0.168383   1.79781 255 255 255
 -1.17082 -0.284633    1.7609 255 255 255
-0.956534 -0.275428   1.82046 255 255 255
 -1.06367 -0.322129   1.79194 255 255 255
 -1.18914 -0.253208   1.75327 255 255 255
-0.964168 -0.326707   1.82041 255 255 255
-0.985642 -0.274879   1.81325 255 255 255
 -1.11091 -0.201814   1.77271 255 255 255
 -1.04608 -0.264121   1.79569 255 255 255
 -1.03547 -0.271342   1.79945 255 255 255
 -1.01592 -0.204139   1.79779 255 255 255
 -1.06087 -0.350198   1.79284 255 255 255
 -1.20473 -0.335916   1.74818 255 255 255
   -1.093 -0.205635   1.77772 255 255 255
